878.459,878.4362,878.4134,878.3906,878.3678,878.345,878.3222,878.2995,878.2767,878.2538,878.2311,878.2084,878.1855,878.1628,878.1401,878.1172,878.0945,877.8649,815.0453,808.9766,804.8396,802.2877,800.486,799.2485,798.0148,796.7849,795.5588,794.4078,793.4335,792.4791,791.5269,790.5771,789.6295,788.6842,787.7412,786.8512,786.2362,785.6246,785.0139,784.4042,783.7955,783.1876,782.5807,781.9748,781.3699,780.7657,777.1967,776.7691,776.342,775.9154,775.4893,775.0635,774.6383,774.2136,773.7893,773.3655,772.9421,772.5192,772.0968,771.6747,771.2774,771.6623,772.3682,772.6697,772.3117,771.954,771.5967,771.2396,770.8829,770.5267,770.1706,769.8149,769.4595,769.1046,768.7498,768.3954,768.0413,767.6877,767.424,767.192,766.9601,766.7285,766.497,766.2656,766.0344,765.8033,765.5723,765.3415,765.1109,764.8803,764.6499,764.4196,764.1895,763.9595,763.7296,763.4999,763.2703,763.0409,762.8116,762.5825,762.3535,762.1245,761.8959,761.6867,761.5595,761.4339,761.3084,761.1828,761.0574,760.9319,760.8064,760.6812,760.5558,760.4305,760.3052,760.1801,760.055,759.9299,759.8047,759.6798,759.5548,759.4298,759.3049,759.1801,759.0553,758.9304,758.8057,758.6804,758.5546,758.4289,758.3032,758.1786,758.1271,758.0917,758.0565,758.0212,757.9858,757.9747,757.9745,757.9742,757.974,757.9738,757.9736,757.9733,757.9731,757.9728,757.9727,757.9724,757.9722,757.9719,757.9717,757.9714,757.9712,757.9709,757.9708,757.9705,757.9703,757.97,757.9698,757.9695,757.9694,757.9691,757.9919,758.0886,758.1876,758.2865,758.3855,758.4845,758.5836,758.6826,758.7817,758.8807,758.9799,759.0791,759.1783,759.2775,759.4263,759.5781,759.73,759.8819,760.0339,760.186,760.3381,760.4904,760.6426,760.7948,760.9473,761.0997,761.2522,761.4047,761.5573,761.71,761.871,762.1101,762.3815,762.6529,762.9246,763.1964,763.4685,763.7407,764.0132,764.3459,764.7085,765.0715,765.4348,765.7985,766.1624,766.5268,766.8915,767.2399,767.5878,767.9359,768.2844,768.6331,768.9822,769.3317,769.6814,770.0314,770.3818,770.7529,771.3071,771.951,772.6004,773.251,773.9025,774.5553,775.2092,775.864,776.5201,777.1772,777.8354,778.4949,779.1553,779.8169,780.5222,781.271,782.0211,782.7729,783.5365,784.5242,785.614,786.7069,787.8029,788.9019,790.004,791.1181,792.2549,793.395,794.5385,795.6851,796.8351,798.0067,799.7767,801.5546,803.3583,805.741,808.1382,810.5494,814.2964,871.9606,872.5729,872.5505,872.528,872.5055,872.483,872.4604,872.4379,872.4155,872.3931,872.3706,872.3481,872.3257,872.3032,872.2808,872.2583,872.2358,872.2133,872.1909,872.1683,872.1459,872.1234,872.101,872.0786,872.0561,872.0336,872.0112,871.9886,871.9662,871.9438,871.9213,871.8989,871.8764,871.8539,871.8315,871.809,871.7866,871.7642,871.7418,871.7192,871.6968,871.6744,871.6519,871.6295,871.6071,871.5846,871.5621,871.5397,871.5173,871.4949,871.4725,871.4501,871.4276,871.4052,871.3828,871.3603,871.3379,871.3155,871.2931,871.2706,871.2482,871.2258,871.2034,871.181,871.1586,871.1362,871.1138,871.0914,871.069,871.0466,871.0241,871.0017,870.9793,870.9569,870.9346,870.912,870.8896
876.3029,876.2802,876.2576,876.2349,876.2122,876.1896,876.1668,876.1442,876.1215,876.0989,876.0762,876.0535,876.0309,876.0082,875.9856,875.963,875.9402,875.9176,875.7005,814.9971,808.7859,804.0959,801.6135,800.345,799.1079,797.8746,796.6452,795.4194,794.1976,793.0596,792.0898,791.1385,790.1896,789.243,788.2986,787.3565,786.7017,786.0894,785.4779,784.8675,784.258,783.6494,783.0419,782.4352,781.8295,781.2248,777.3315,776.9039,776.4767,776.0498,775.6235,775.1977,774.7723,774.3474,773.923,773.499,773.0756,772.6525,772.2299,771.8076,771.3884,771.7384,772.4445,772.8301,772.4899,772.1321,771.7745,771.4174,771.0605,770.704,770.3477,769.9919,769.6365,769.2813,768.9264,768.5718,768.2176,767.8637,767.5824,767.3503,767.1185,766.8867,766.6551,766.4236,766.1923,765.9611,765.73,765.4991,765.2683,765.0377,764.8071,764.5768,764.3466,764.1165,763.8866,763.6567,763.4271,763.1976,762.9681,762.7389,762.5098,762.2808,762.052,761.8254,761.6929,761.5673,761.4417,761.3162,761.1907,761.0651,760.9396,760.8143,760.6889,760.5636,760.4383,760.3131,760.1879,760.0627,759.9376,759.8126,759.6875,759.5626,759.4376,759.3127,759.1878,759.063,758.9382,758.8134,758.6887,758.5641,758.4395,758.3157,758.236,758.2305,758.2302,758.23,758.2298,758.2296,758.2293,758.2291,758.2288,758.2286,758.2283,758.2281,758.2278,758.2277,758.2274,758.2272,758.2269,758.2267,758.2265,758.2263,758.226,758.2258,758.2256,758.2253,758.2251,758.2249,758.2246,758.2244,758.2241,758.2239,758.2238,758.3074,758.4064,758.5054,758.6044,758.7035,758.8026,758.9017,759.0008,759.1,759.1992,759.3444,759.4962,759.648,759.7999,759.9519,760.1039,760.256,760.4081,760.5604,760.7126,760.865,761.0175,761.1698,761.3224,761.475,761.6277,761.7803,761.9331,762.0859,762.2388,762.4539,762.7255,762.9971,763.269,763.5411,763.8153,764.1711,764.5336,764.8964,765.2595,765.623,765.9869,766.3511,766.7156,767.0758,767.4235,767.7715,768.1198,768.4684,768.8173,769.1666,769.5162,769.8661,770.2163,770.5669,770.975,771.447,772.0838,772.7335,773.3842,774.0361,774.689,775.343,775.9982,776.6544,777.3118,777.9702,778.6298,779.2906,779.9894,780.7372,781.4865,782.237,782.9891,783.7427,784.5286,785.6185,786.7114,787.8074,788.9064,790.0085,791.1395,792.2763,793.4166,794.56,795.7067,796.8568,798.0103,799.4778,801.2545,803.2328,805.6149,808.0112,810.4219,813.3363,869.8586,870.468,870.4456,870.4233,870.4009,870.3785,870.3562,870.3337,870.3113,870.2891,870.2666,870.2443,870.222,870.1996,870.1772,870.1548,870.1326,870.1101,870.0877,870.0654,870.0431,870.0207,869.9984,869.976,869.9537,869.9313,869.909,869.8867,869.8643,869.842,869.8195,869.7972,869.7749,869.7525,869.7302,869.7078,869.6855,869.6631,869.6408,869.6185,869.5962,869.5739,869.5515,869.5292,869.5067,869.4845,869.4621,869.4398,869.4175,869.3951,869.3729,869.3505,869.3282,869.3059,869.2836,869.2613,869.239,869.2166,869.1943,869.172,869.1497,869.1274,869.105,869.0828,869.0604,869.0382,869.0159,868.9937,868.9713,868.949,868.9267,868.9044,868.8821,868.8597,868.8375,868.8152,868.7929,868.7706
874.1575,874.1349,874.1124,874.0898,874.0672,874.0447,874.0222,873.9996,873.977,873.9545,873.9318,873.9093,873.8868,873.8642,873.8417,873.8191,873.7966,873.7739,873.7515,873.7288,872.6566,808.6377,803.3536,801.4445,800.204,798.9673,797.7346,796.5055,795.2803,794.0588,792.8411,791.7009,790.7506,789.8026,788.8569,787.9135,787.1676,786.5546,785.9424,785.3313,784.7211,784.1118,783.5035,782.8961,782.2897,781.6842,777.4666,777.0387,776.6113,776.1843,775.7578,775.3319,774.9064,774.4813,774.0568,773.6326,773.2089,772.7858,772.363,771.9407,771.5189,771.8146,772.5207,772.9728,772.6682,772.3101,771.9525,771.5952,771.2382,770.8814,770.5251,770.1691,769.8134,769.458,769.103,768.7482,768.3939,768.0399,767.741,767.5088,767.2767,767.0449,766.8131,766.5817,766.3502,766.119,765.8878,765.6567,765.4259,765.1952,764.9645,764.734,764.5038,764.2736,764.0435,763.8137,763.5839,763.3542,763.1248,762.8954,762.6662,762.4371,762.2082,761.9794,761.8264,761.7007,761.5751,761.4495,761.3239,761.1984,761.0729,760.9474,760.8221,760.6967,760.5714,760.4461,760.3208,760.1957,760.0705,759.9454,759.8203,759.6953,759.5703,759.446,759.323,759.2065,759.0875,758.975,758.8708,758.7667,758.6625,758.5585,758.4857,758.4855,758.4852,758.485,758.4847,758.4846,758.4843,758.484,758.4838,758.4836,758.4833,758.4832,758.4829,758.4827,758.4824,758.4822,758.4819,758.4817,758.4814,758.4812,758.481,758.4808,758.4805,758.4802,758.4801,758.4798,758.4796,758.4793,758.4792,758.4789,758.4787,758.5262,758.6254,758.7244,758.8235,758.9226,759.0217,759.1209,759.2626,759.4142,759.566,759.718,759.8699,760.0219,760.174,760.3261,760.4783,760.6305,760.7828,760.9352,761.0876,761.2401,761.3927,761.5453,761.6979,761.8507,762.0035,762.1563,762.3093,762.4622,762.6152,762.8052,763.0697,763.3417,763.6345,763.9965,764.3588,764.7214,765.0844,765.4478,765.8114,766.1754,766.5398,766.9044,767.2592,767.6071,767.9553,768.3037,768.6525,769.0016,769.3511,769.7007,770.0508,770.4061,770.8454,771.2853,771.7256,772.2285,772.8665,773.5175,774.1696,774.8227,775.477,776.1323,776.7888,777.4465,778.1052,778.765,779.4574,780.2042,780.9524,781.702,782.4531,783.2056,783.9596,784.715,785.6229,786.7158,787.8118,788.9108,790.0271,791.1607,792.2979,793.438,794.5815,795.7283,796.8784,798.0319,799.1975,800.9545,803.1075,805.4889,807.8844,810.2943,812.7185,867.7668,868.3734,868.351,868.3287,868.3065,868.2842,868.262,868.2397,868.2175,868.1953,868.1729,868.1506,868.1284,868.1061,868.0839,868.0616,868.0393,868.0171,867.9949,867.9725,867.9503,867.9281,867.9058,867.8836,867.8614,867.8392,867.8168,867.7947,867.7724,867.7502,867.728,867.7057,867.6835,867.6612,867.639,867.6168,867.5945,867.5723,867.5501,867.5279,867.5056,867.4834,867.4612,867.439,867.4167,867.3945,867.3723,867.35,867.3278,867.3057,867.2834,867.2612,867.239,867.2168,867.1946,867.1724,867.15,867.1279,867.1057,867.0834,867.0612,867.039,867.0169,866.9947,866.9725,866.9503,866.9281,866.9059,866.8837,866.8615,866.8393,866.8171,866.795,866.7728,866.7506,866.7284,866.7062,866.6841,866.6619
872.0225,872.0001,871.9776,871.9552,871.9328,871.9104,871.8879,871.8654,871.843,871.8206,871.798,871.7755,871.7531,871.7307,871.7082,871.6858,871.6634,871.641,871.6185,871.5961,871.5736,870.9156,808.5901,802.6866,801.3032,800.0632,798.8269,797.5945,796.3659,795.1411,793.9201,792.7027,791.4891,790.363,789.4159,788.4711,787.6342,787.0203,786.4075,785.7956,785.1847,784.5748,783.9657,783.3576,782.7505,782.1443,777.6265,777.1777,776.7459,776.3188,775.8923,775.4661,775.0404,774.6152,774.1906,773.7662,773.3425,772.9191,772.4963,772.0737,771.6519,771.8907,772.597,773.1155,772.8466,772.4883,772.1306,771.773,771.4158,771.059,770.7025,770.3463,769.9905,769.6349,769.2797,768.9248,768.5703,768.2161,767.8995,767.6672,767.4352,767.2031,766.9714,766.7397,766.5082,766.2768,766.0455,765.8145,765.5835,765.3527,765.1219,764.8914,764.661,764.4308,764.2006,763.9706,763.7407,763.511,763.2815,763.052,762.8227,762.5934,762.3645,762.1356,761.96,761.8343,761.7086,761.5829,761.4573,761.3317,761.2062,761.0807,760.9553,760.8298,760.7044,760.5792,760.4547,760.338,760.2151,760.1018,759.9969,759.8925,759.7881,759.6837,759.5793,759.475,759.3707,759.2664,759.1621,759.058,758.9538,758.8497,758.7476,758.7406,758.7404,758.7402,758.7399,758.7397,758.7394,758.7393,758.739,758.7388,758.7385,758.7383,758.738,758.7378,758.7375,758.7373,758.7371,758.7369,758.7366,758.7364,758.7361,758.7359,758.7357,758.7354,758.7352,758.735,758.7347,758.7344,758.7343,758.734,758.7338,758.7494,758.8444,758.9435,759.0426,759.1807,759.3324,759.4842,759.636,759.7879,759.9399,760.0919,760.244,760.3962,760.5484,760.7007,760.853,761.0054,761.1578,761.3104,761.463,761.6155,761.7683,761.921,762.0739,762.2268,762.3796,762.5327,762.6858,762.8389,762.9921,763.1607,763.4601,763.8219,764.184,764.5465,764.9093,765.2725,765.6359,765.9998,766.364,766.7285,767.0934,767.4427,767.7908,768.1391,768.4877,768.8367,769.186,769.5356,769.8855,770.2767,770.7159,771.1555,771.5956,772.0362,772.4774,772.9996,773.6508,774.3032,774.9565,775.611,776.2666,776.9233,777.5811,778.24,778.926,779.6718,780.419,781.1676,781.9177,782.6692,783.4221,784.1765,784.9323,785.7001,786.7203,787.8163,788.9178,790.0485,791.1822,792.3192,793.4595,794.6031,795.75,796.9001,798.0537,799.2106,800.6549,802.9822,805.3628,807.7574,810.1666,812.59,865.6852,866.2886,866.2665,866.2443,866.2222,866.2001,866.1779,866.1557,866.1335,866.1114,866.0892,866.067,866.0449,866.0228,866.0007,865.9785,865.9563,865.9342,865.912,865.8898,865.8677,865.8456,865.8235,865.8013,865.7791,865.757,865.7349,865.7126,865.6905,865.6684,865.6462,865.6241,865.602,865.5799,865.5577,865.5356,865.5135,865.4914,865.4692,865.4471,865.4251,865.403,865.3809,865.3588,865.3366,865.3145,865.2924,865.2703,865.2482,865.2261,865.204,865.1819,865.1598,865.1377,865.1155,865.0935,865.0714,865.0493,865.0272,865.005,864.9829,864.9608,864.9387,864.9166,864.8946,864.8724,864.8503,864.8283,864.8062,864.7841,864.762,864.7399,864.7178,864.6957,864.6736,864.6516,864.6295,864.6074,864.5854,864.5633
869.898,869.8756,869.8533,869.831,869.8086,869.7863,869.7639,869.7416,869.7192,869.6969,869.6746,869.6523,869.6299,869.6075,869.5852,869.5629,869.5406,869.5182,869.496,869.4736,869.4512,869.4289,868.9901,808.5425,802.7175,801.1619,799.9223,798.6865,797.4545,796.2264,795.002,793.7813,792.5645,791.3513,790.1418,789.0295,788.1061,787.4866,786.8732,786.2606,785.6489,785.0382,784.4284,783.8197,783.2117,782.6049,777.9731,777.493,777.0173,776.5421,776.0778,775.6241,775.1776,774.7492,774.3243,773.9,773.476,773.0524,772.6295,772.2068,771.7847,771.9669,772.6733,773.3103,773.152,772.7682,772.3848,772.0028,771.6213,771.2549,770.8941,770.5238,770.1678,769.8118,769.4564,769.1015,768.7467,768.3923,768.0581,767.8258,767.5936,767.3616,767.1296,766.8979,766.6663,766.4348,766.2034,765.9723,765.7412,765.5103,765.2795,765.0488,764.8184,764.588,764.3577,764.1276,763.8976,763.6679,763.4382,763.2086,762.9792,762.7499,762.5209,762.2919,762.0936,761.9678,761.842,761.7156,761.5915,761.4745,761.3513,761.2373,761.1264,761.0215,760.9169,760.8123,760.7076,760.603,760.4983,760.3937,760.2891,760.1846,760.0802,759.9756,759.8712,759.7668,759.6625,759.5582,759.4538,759.3495,759.2453,759.141,759.0368,758.993,758.9958,758.9954,758.9952,758.995,758.9948,758.9945,758.9943,758.9941,758.9938,758.9937,758.9933,758.9932,758.9929,758.9927,758.9924,758.9921,758.9919,758.9917,758.9915,758.9912,758.991,758.9908,758.9906,758.9904,758.9901,758.9898,758.9896,758.9893,758.9891,758.989,759.0994,759.2513,759.4032,759.5552,759.7073,759.8594,760.0115,760.1638,760.316,760.4684,760.6208,760.7733,760.9258,761.0785,761.2311,761.3838,761.5366,761.6895,761.8423,761.9953,762.1483,762.3014,762.4545,762.6077,762.761,762.9144,763.0677,763.243,763.4559,763.6761,764.0093,764.3716,764.7343,765.0973,765.4606,765.8243,766.1884,766.5527,766.9174,767.2785,767.6263,767.9745,768.3231,768.6718,769.021,769.3704,769.7202,770.1474,770.5864,771.0258,771.4658,771.9063,772.3474,772.7888,773.2307,773.7842,774.4366,775.0903,775.7449,776.4009,777.0578,777.7158,778.3956,779.1403,779.8864,780.6339,781.383,782.1334,782.8854,783.6387,784.3936,785.1498,785.9075,786.7247,787.8207,788.9391,790.0697,791.2036,792.3406,793.481,794.6246,795.7715,796.9272,798.1035,799.283,800.6253,802.9665,805.3211,807.6897,810.0901,812.5003,863.6176,864.2139,864.1918,864.1698,864.1478,864.1257,864.1036,864.0815,864.0596,864.0375,864.0155,863.9933,863.9713,863.9494,863.9274,863.9052,863.8832,863.8612,863.8392,863.8171,863.7951,863.7731,863.751,863.729,863.7068,863.6848,863.6628,863.6409,863.6188,863.5967,863.5747,863.5527,863.5306,863.5087,863.4867,863.4647,863.4425,863.4205,863.3986,863.3765,863.3545,863.3325,863.3105,863.2884,863.2665,863.2444,863.2224,863.2005,863.1785,863.1564,863.1344,863.1124,863.0904,863.0684,863.0464,863.0244,863.0025,862.9805,862.9584,862.9365,862.9146,862.8925,862.8705,862.8486,862.8265,862.8046,862.7826,862.7606,862.7386,862.7166,862.6946,862.6726,862.6506,862.6287,862.6067,862.5847,862.5627,862.5407,862.5188,862.4968,862.4749
867.7836,867.7615,867.7392,867.717,867.6948,867.6725,867.6503,867.628,867.6059,867.5837,867.5613,867.5391,867.517,867.4947,867.4725,867.4503,867.4281,867.4058,867.3835,867.3613,867.3392,867.317,867.2947,867.0641,808.4948,803.0809,801.316,799.7815,798.5461,797.3146,796.0869,794.8629,793.6426,792.4263,791.2134,790.0045,788.7991,787.9636,787.3394,786.726,786.1136,785.5022,784.8917,784.2822,783.6736,783.066,782.3841,777.8667,777.3904,776.9149,776.4398,775.9653,775.4913,775.018,774.5455,774.0833,773.632,773.1882,772.7628,772.34,771.9177,772.0431,772.7496,773.4576,773.5418,773.1576,772.7737,772.3903,772.0072,771.6245,771.2422,770.8604,770.4788,770.0977,769.7168,769.3369,768.9586,768.587,768.2464,768.0057,767.7753,767.5432,767.3112,767.0793,766.8478,766.6177,766.3888,766.1606,765.9305,765.6995,765.4686,765.2377,765.0089,764.7811,764.5533,764.3244,764.097,763.8707,763.6425,763.4155,763.1884,762.9615,762.735,762.5085,762.2833,762.1542,762.0491,761.9442,761.8392,761.7341,761.6293,761.5244,761.4196,761.3147,761.2098,761.1051,761.0004,760.8956,760.791,760.6863,760.5817,760.4771,760.3725,760.2679,760.1635,760.0589,759.9545,759.85,759.7457,759.6412,759.5369,759.4326,759.3283,759.2515,759.2512,759.251,759.2507,759.2505,759.2502,759.25,759.2498,759.2495,759.2493,759.2491,759.2489,759.2486,759.2485,759.2481,759.2479,759.2477,759.2474,759.2472,759.2469,759.2468,759.2465,759.2462,759.2461,759.2458,759.2455,759.2455,759.2743,759.3108,759.3472,759.3836,759.4788,759.6309,759.783,759.9351,760.0873,760.2395,760.3918,760.5442,760.6967,760.8491,761.0017,761.1543,761.307,761.4597,761.6125,761.7654,761.9184,762.0714,762.2244,762.3776,762.5308,762.684,762.8373,762.9907,763.1721,763.3851,763.5981,763.8113,764.0245,764.2379,764.5593,764.9222,765.2853,765.6489,766.0127,766.377,766.7415,767.1064,767.462,767.8101,768.1584,768.5071,768.8561,769.2053,769.5797,770.018,770.4568,770.8961,771.3361,771.7764,772.2172,772.6586,773.1004,773.5428,773.9856,774.5704,775.2242,775.8792,776.5352,777.1923,777.8657,778.6094,779.3546,780.1011,780.8491,781.5985,782.3494,783.1017,783.8555,784.6107,785.3674,786.1255,786.8852,787.8329,788.963,790.1157,791.2719,792.4313,793.5942,794.7605,795.9304,797.1035,798.2801,799.5219,800.9998,803.1749,805.5309,807.9007,810.2845,812.6824,861.7594,862.1492,862.1272,862.1053,862.0833,862.0613,862.0394,862.0175,861.9955,861.9734,861.9517,861.9296,861.9078,861.8857,861.8639,861.8419,861.82,861.798,861.7762,861.7542,861.7323,861.7103,861.6884,861.6665,861.6445,861.6226,861.6008,861.5787,861.5569,861.535,861.5131,861.4911,861.4692,861.4473,861.4253,861.4034,861.3815,861.3596,861.3376,861.3158,861.2938,861.272,861.25,861.2281,861.2062,861.1843,861.1625,861.1406,861.1186,861.0967,861.0747,861.0529,861.0309,861.0091,860.9872,860.9653,860.9434,860.9216,860.8997,860.8778,860.8558,860.834,860.8121,860.7902,860.7684,860.7465,860.7245,860.7027,860.6808,860.6589,860.6371,860.6152,860.5933,860.5715,860.5496,860.5277,860.5059,860.484,860.4621,860.4404,860.4183,860.3965
865.6797,865.6576,865.6355,865.6133,865.5912,865.5691,865.547,865.5248,865.5027,865.4806,865.4585,865.4363,865.4142,865.3921,865.37,865.3478,865.3257,865.3037,865.2816,865.2595,865.2373,865.2152,865.1931,865.171,864.9548,808.4471,803.4446,801.6782,799.9195,798.4058,797.1747,795.9474,794.7238,793.504,792.288,791.0757,789.8671,788.7348,788.0203,787.3072,786.6142,785.9692,785.3555,784.7454,784.136,783.5277,782.9202,778.2406,777.7639,777.2878,776.8124,776.3374,775.863,775.3893,774.9161,774.4434,773.9714,773.5,773.0291,772.5601,772.0992,772.1193,772.826,773.534,773.9268,773.5473,773.1631,772.7793,772.3959,772.0128,771.6301,771.2478,770.8658,770.4843,770.1031,769.7224,769.3419,768.9619,768.5822,768.3214,768.0914,767.8618,767.6321,767.4028,767.1734,766.9442,766.7152,766.4863,766.2576,766.0289,765.8004,765.572,765.3439,765.1157,764.8878,764.66,764.4323,764.2047,763.9774,763.75,763.5229,763.2959,763.0691,762.8423,762.6157,762.4481,762.343,762.2379,762.1328,762.0277,761.9228,761.8178,761.7128,761.608,761.5031,761.3982,761.2934,761.1886,761.0837,760.9791,760.8743,760.7697,760.665,760.5604,760.4558,760.3512,760.2466,760.1422,760.0377,759.9332,759.8288,759.7244,759.6201,759.5178,759.507,759.5066,759.5065,759.5062,759.5059,759.5057,759.5055,759.5052,759.505,759.5048,759.5046,759.5043,759.504,759.5038,759.5035,759.5033,759.5031,759.5029,759.5026,759.5024,759.5022,759.5116,759.548,759.5844,759.6209,759.6573,759.6938,759.7302,759.7667,759.8031,759.8662,760.0107,760.1629,760.3152,760.4677,760.6201,760.7725,760.925,761.0776,761.2302,761.383,761.5358,761.6886,761.8416,761.9944,762.1475,762.3007,762.4538,762.6069,762.7603,762.9135,763.1013,763.3142,763.5272,763.7403,763.9535,764.1669,764.3804,764.5939,764.8076,765.1102,765.4735,765.8372,766.2012,766.5657,766.9304,767.2955,767.6456,767.9939,768.3423,768.6913,769.0404,769.4505,769.8887,770.3274,770.7666,771.2063,771.6465,772.0872,772.5284,772.9702,773.4124,773.855,774.2982,774.7427,775.3582,776.0133,776.6696,777.3389,778.0792,778.8234,779.569,780.3159,781.0644,781.8142,782.5656,783.3279,784.0829,784.8489,785.6144,786.3901,787.1829,788.0317,789.1357,790.2889,791.4456,792.6055,793.7689,794.9357,796.106,797.2797,798.4693,799.9282,801.4075,803.3835,805.7407,808.1118,810.4968,813.8855,859.7216,860.0942,860.0724,860.0506,860.0287,860.0069,859.985,859.9631,859.9414,859.9194,859.8976,859.8758,859.854,859.8322,859.8102,859.7884,859.7666,859.7448,859.7229,859.701,859.6793,859.6575,859.6356,859.6138,859.592,859.5702,859.5484,859.5266,859.5047,859.4828,859.4611,859.4393,859.4174,859.3956,859.3738,859.352,859.3303,859.3084,859.2866,859.2648,859.243,859.2212,859.1994,859.1776,859.1558,859.134,859.1122,859.0905,859.0686,859.0468,859.025,859.0032,858.9814,858.9596,858.9379,858.916,858.8942,858.8725,858.8506,858.8289,858.8071,858.7853,858.7635,858.7416,858.7199,858.6982,858.6765,858.6547,858.6329,858.6111,858.5894,858.5675,858.5458,858.524,858.5022,858.4805,858.4587,858.437,858.4151,858.3934,858.3716,858.3499,858.3281
863.5859,863.5638,863.5419,863.5198,863.4978,863.4758,863.4538,863.4318,863.4097,863.3878,863.3657,863.3437,863.3216,863.2997,863.2776,863.2556,863.2336,863.2116,863.1896,863.1676,863.1456,863.1236,863.1016,863.0797,863.0576,863.0356,861.9719,803.8085,802.0406,800.2804,798.5279,797.0349,795.808,794.5849,793.3655,792.1499,790.938,789.7298,788.8296,788.1149,787.4016,786.6895,785.9788,785.27,784.6014,783.9899,783.3818,778.6151,778.1379,777.6614,777.1853,776.7099,776.2352,775.7609,775.2874,774.8142,774.3417,773.8698,773.3984,772.9276,772.4575,772.253,772.9023,773.6105,774.176,773.9376,773.5529,773.1686,772.7848,772.4014,772.0183,771.6356,771.2534,770.8713,770.4898,770.1086,769.7278,769.3474,768.9673,768.6603,768.4303,768.2004,767.9705,767.7408,767.5114,767.282,767.0527,766.8237,766.5947,766.3658,766.1371,765.9086,765.6801,765.4519,765.2237,764.9957,764.7678,764.5401,764.3124,764.085,763.8576,763.6304,763.4033,763.1765,762.9496,762.7479,762.637,762.5318,762.4267,762.3216,762.2165,762.1115,762.0065,761.9014,761.7965,761.6915,761.5866,761.4818,761.3769,761.2722,761.1673,761.0625,760.9578,760.853,760.7484,760.6438,760.5391,760.4345,760.33,760.2255,760.1209,760.0165,759.912,759.8076,759.7627,759.7625,759.7623,759.762,759.7618,759.7615,759.7614,759.761,759.7609,759.7606,759.7604,759.7601,759.7599,759.7596,759.7594,759.7592,759.7591,759.7856,759.822,759.8584,759.8949,759.9313,759.9678,760.0042,760.0406,760.0772,760.1136,760.1501,760.1867,760.2231,760.2668,760.391,760.5434,760.6958,760.8484,761.0009,761.1536,761.3062,761.459,761.6118,761.7646,761.9176,762.0706,762.2236,762.3767,762.5299,762.6831,762.8364,763.0306,763.2434,763.4564,763.6694,763.8826,764.0958,764.3093,764.5228,764.7365,764.9503,765.1642,765.3782,765.6617,766.0257,766.3898,766.7545,767.1194,767.4813,767.8293,768.1777,768.5264,768.8839,769.3214,769.7595,770.1981,770.6371,771.0766,771.5167,771.9572,772.3983,772.8398,773.2819,773.7245,774.1675,774.6111,775.0552,775.5174,776.1475,776.8159,777.5499,778.293,779.0413,779.7937,780.5515,781.3027,782.0699,782.8384,783.6085,784.3802,785.1534,785.928,786.7239,787.54,788.3577,789.3084,790.4622,791.6193,792.7798,793.9437,795.111,796.2818,797.456,798.8596,800.3351,801.8158,803.5923,805.9507,808.323,810.7093,815.7463,857.8734,858.049,858.0273,858.0056,857.9839,857.9622,857.9404,857.9186,857.8968,857.8751,857.8534,857.8317,857.8099,857.7882,857.7664,857.7447,857.723,857.7012,857.6794,857.6578,857.636,857.6143,857.5927,857.5709,857.5492,857.5275,857.5057,857.4839,857.4623,857.4406,857.4189,857.3972,857.3755,857.3538,857.3322,857.3104,857.2886,857.2669,857.2452,857.2235,857.2018,857.1801,857.1584,857.1368,857.1151,857.0933,857.0717,857.0499,857.0283,857.0067,856.9849,856.9631,856.9415,856.9197,856.8981,856.8765,856.8547,856.8331,856.8114,856.7897,856.7681,856.7463,856.7247,856.703,856.6813,856.6596,856.6379,856.6162,856.5945,856.5729,856.5513,856.5295,856.508,856.4863,856.4647,856.4429,856.4213,856.3997,856.378,856.3563,856.3346,856.3129,856.2914,856.2697
861.5023,861.4803,861.4584,861.4365,861.4146,861.3927,861.3707,861.3488,861.3269,861.3051,861.283,861.2612,861.2393,861.2174,861.1955,861.1735,861.1517,861.1298,861.1079,861.086,861.064,861.0421,861.0202,860.9984,860.9764,860.9546,860.9326,860.0922,804.1728,802.4033,800.6415,798.8874,797.1411,795.6686,794.4459,793.227,792.0118,790.8004,789.6475,788.9244,788.2095,787.496,786.7838,786.0729,785.3632,784.6548,783.9477,778.9933,778.5121,778.0351,777.5588,777.0828,776.6075,776.1328,775.6588,775.1854,774.7123,774.2399,773.7681,773.2969,772.8262,772.4741,772.9788,773.687,774.3946,774.328,773.9431,773.5584,773.1743,772.7904,772.4069,772.0239,771.6412,771.2588,770.8768,770.4953,770.1141,769.7334,769.3528,769.0087,768.7693,768.5392,768.3091,768.0793,767.8497,767.6201,767.3906,767.1613,766.9321,766.703,766.4741,766.2454,766.0168,765.7883,765.5599,765.3317,765.1036,764.8757,764.6479,764.4202,764.1927,763.9652,763.738,763.5109,763.2839,763.0594,762.9313,762.8261,762.7208,762.6156,762.5104,762.4053,762.3002,762.1951,762.0901,761.9851,761.8801,761.7751,761.6702,761.5654,761.4604,761.3556,761.2508,761.146,761.0412,760.9365,760.8318,760.7271,760.6224,760.5179,760.4133,760.3088,760.2042,760.0997,760.0187,760.0186,760.0182,760.018,760.0178,760.0175,760.0173,760.017,760.0168,760.0166,760.0164,760.0161,760.0161,760.0595,760.0961,760.1326,760.1689,760.2054,760.2419,760.2784,760.3149,760.3515,760.3881,760.4245,760.461,760.4975,760.5341,760.5706,760.6071,760.6436,760.6802,760.7717,760.9241,761.0767,761.2294,761.3821,761.5349,761.6877,761.8407,761.9937,762.1467,762.2997,762.4529,762.6061,762.7594,762.9598,763.1726,763.3855,763.5985,763.8116,764.0249,764.2382,764.4517,764.6653,764.8791,765.093,765.3069,765.5211,765.7352,765.9496,766.2142,766.5786,766.9433,767.3084,767.665,768.0131,768.3618,768.7549,769.1924,769.6303,770.0687,770.5076,770.947,771.3868,771.8273,772.2681,772.7096,773.1515,773.5939,774.0369,774.4803,774.9242,775.3687,775.8139,776.307,777.0416,777.7967,778.5569,779.3187,780.0819,780.8466,781.6129,782.3806,783.1497,783.9205,784.6929,785.4666,786.2655,787.0806,787.8973,788.7158,789.5447,790.6354,791.7932,792.9542,794.1186,795.2864,796.4576,797.7939,799.2654,800.7422,802.2245,803.8011,806.1608,808.5341,811.917,823.4164,855.8495,856.0136,855.9919,855.9703,855.9486,855.927,855.9055,855.8837,855.8621,855.8405,855.8188,855.7972,855.7756,855.754,855.7324,855.7108,855.6891,855.6675,855.6459,855.6242,855.6025,855.5809,855.5593,855.5377,855.5162,855.4945,855.4728,855.4513,855.4296,855.408,855.3864,855.3648,855.3431,855.3216,855.3,855.2783,855.2568,855.2352,855.2136,855.192,855.1703,855.1488,855.1273,855.1056,855.084,855.0624,855.0408,855.0193,854.9976,854.9761,854.9544,854.9329,854.9113,854.8896,854.8681,854.8465,854.825,854.8033,854.7818,854.7603,854.7386,854.7172,854.6954,854.6739,854.6523,854.6307,854.6092,854.5876,854.5661,854.5444,854.523,854.5013,854.4798,854.4581,854.4366,854.415,854.3935,854.3719,854.3504,854.3288,854.3073,854.2857,854.2642,854.2426,854.2211
859.4286,859.4067,859.3849,859.3631,859.3413,859.3195,859.2977,859.2759,859.2541,859.2322,859.2105,859.1887,859.1669,859.1451,859.1232,859.1015,859.0797,859.0579,859.0361,859.0143,858.9926,858.9706,858.9489,858.9271,858.9053,858.8835,858.8618,858.84,858.2141,804.5375,802.7663,801.003,799.2473,797.4993,795.759,794.3071,793.0885,791.8738,790.6627,789.7354,789.0191,788.3041,787.5904,786.8781,786.167,785.4571,784.7486,783.8626,778.8867,778.4093,777.9324,777.4561,776.9803,776.5051,776.0307,775.5567,775.0833,774.6105,774.1381,773.6665,773.1954,772.7346,773.0551,773.7635,774.4733,774.719,774.3337,773.9486,773.564,773.1797,772.7959,772.4124,772.0294,771.6467,771.2643,770.8824,770.5008,770.1196,769.7388,769.3584,769.1087,768.8783,768.6481,768.4181,768.1881,767.9584,767.7288,767.4993,767.2698,767.0406,766.8115,766.5826,766.3537,766.1251,765.8965,765.668,765.4398,765.2116,764.9836,764.7557,764.528,764.3004,764.0729,763.8456,763.6185,763.3914,763.2258,763.1204,763.0152,762.9099,762.8046,762.6995,762.5942,762.489,762.384,762.2789,762.1738,762.0687,761.9637,761.8588,761.7538,761.6489,761.544,761.4391,761.3344,761.2295,761.1246,761.02,760.9152,760.8105,760.7059,760.6012,760.4966,760.392,760.2896,760.2747,760.2745,760.2742,760.274,760.2737,760.2735,760.2734,760.2974,760.3338,760.3702,760.4068,760.4434,760.4799,760.5164,760.5529,760.5894,760.6259,760.6625,760.699,760.7355,760.7722,760.8087,760.8452,760.8818,760.9184,760.9549,760.9915,761.028,761.0646,761.1011,761.1604,761.3054,761.4581,761.611,761.7638,761.9167,762.0697,762.2228,762.376,762.5291,762.6824,762.889,763.1017,763.3146,763.5276,763.7407,763.9539,764.1672,764.3807,764.5944,764.808,765.0219,765.2358,765.4498,765.664,765.8782,766.0927,766.3072,766.5219,766.7687,767.1323,767.4976,767.8487,768.1971,768.6261,769.0634,769.5011,769.9394,770.3781,770.8173,771.2571,771.6974,772.1381,772.5798,773.0276,773.4713,773.916,774.3652,774.8151,775.2655,775.7164,776.2268,776.7507,777.3448,778.1042,778.865,779.6273,780.3911,781.1565,781.9232,782.6916,783.4615,784.2328,785.0057,785.8077,786.6218,787.4376,788.2551,789.0743,789.8951,790.8088,791.967,793.1285,794.2935,795.4618,796.731,798.1985,799.6714,801.1498,802.6337,804.1381,806.3708,808.7457,813.7687,853.221,854.0093,853.9878,853.9661,853.9447,853.9232,853.9016,853.88,853.8585,853.837,853.8154,853.794,853.7723,853.7509,853.7294,853.7078,853.6863,853.6648,853.6433,853.6218,853.6002,853.5787,853.5572,853.5358,853.5142,853.4926,853.4712,853.4496,853.4282,853.4066,853.3851,853.3636,853.342,853.3206,853.2991,853.2775,853.256,853.2346,853.213,853.1916,853.17,853.1486,853.127,853.1055,853.0841,853.0626,853.041,853.0196,852.998,852.9765,852.9551,852.9336,852.9121,852.8907,852.8691,852.8477,852.8262,852.8047,852.7832,852.7617,852.7403,852.7188,852.6974,852.6759,852.6545,852.6329,852.6115,852.5901,852.5685,852.5471,852.5256,852.5042,852.4827,852.4612,852.4398,852.4182,852.3968,852.3753,852.3539,852.3325,852.3109,852.2895,852.2681,852.2466,852.2252,852.2037,852.1823
857.3649,857.3431,857.3215,857.2997,857.278,857.2562,857.2346,857.2128,857.1912,857.1696,857.1478,857.1262,857.1044,857.0826,857.061,857.0392,857.0176,856.996,856.9743,856.9526,856.9308,856.9092,856.8875,856.8658,856.8441,856.8225,856.8007,856.7791,856.7574,856.3442,805.0744,803.1403,801.3648,799.6075,797.858,796.1161,794.3817,792.9501,791.7358,790.5664,789.8303,789.114,788.3987,787.6849,786.9724,786.2611,785.5511,784.8331,779.2617,778.7838,778.3065,777.8297,777.3535,776.8778,776.4028,775.9285,775.4547,774.9813,774.5085,774.0364,773.5649,773.0939,773.1315,773.8401,774.55,775.0325,774.7245,774.3392,773.9541,773.5696,773.1854,772.8015,772.418,772.0349,771.6522,771.2698,770.8879,770.5063,770.1251,769.7443,769.4483,769.2178,768.9874,768.7571,768.527,768.2969,768.0671,767.8375,767.6079,767.3784,767.1491,766.9199,766.6909,766.462,766.2333,766.0046,765.7762,765.5478,765.3196,765.0916,764.8636,764.6359,764.4081,764.1807,763.9532,763.726,763.524,763.4152,763.3097,763.2044,763.0991,762.9937,762.8885,762.7832,762.678,762.5729,762.4677,762.3626,762.2575,762.1524,762.0474,761.9424,761.8374,761.7325,761.6275,761.5227,761.4178,761.313,761.2082,761.1034,760.9987,760.894,760.7892,760.6846,760.5799,760.5255,760.5308,760.5308,760.5717,760.6082,760.6448,760.6813,760.7179,760.7544,760.791,760.8275,760.864,760.9006,760.9372,760.9738,761.0103,761.0469,761.0834,761.1201,761.1566,761.1932,761.2298,761.2664,761.303,761.3396,761.3762,761.4128,761.4494,761.4861,761.5227,761.5648,761.687,761.8398,761.9928,762.1459,762.2989,762.4521,762.6057,762.8182,763.031,763.2438,763.4567,763.6698,763.883,764.0963,764.3097,764.5233,764.7369,764.9507,765.1646,765.3785,765.5927,765.8069,766.0214,766.2359,766.4504,766.6652,766.88,767.095,767.3389,767.6843,768.0607,768.4973,768.9344,769.3727,769.8167,770.2566,770.6976,771.1433,771.5894,772.036,772.4832,772.9308,773.379,773.8277,774.277,774.7266,775.177,775.6563,776.1794,776.7032,777.2277,777.7531,778.4117,779.1732,779.9362,780.7006,781.4664,782.2339,783.0029,783.7734,784.5452,785.3503,786.1636,786.9784,787.7949,788.6132,789.433,790.2548,791.0781,792.141,793.303,794.4684,795.6842,797.1345,798.6035,800.0779,801.5577,803.0432,804.5341,806.5812,809.9579,815.6287,851.4241,851.9929,851.9714,851.95,851.9286,851.9072,851.8858,851.8643,851.8429,851.8214,851.8,851.7786,851.7571,851.7357,851.7142,851.6929,851.6715,851.65,851.6286,851.6071,851.5858,851.5643,851.543,851.5216,851.5001,851.4787,851.4573,851.4359,851.4145,851.393,851.3716,851.3503,851.3289,851.3075,851.286,851.2646,851.2432,851.2219,851.2004,851.179,851.1577,851.1363,851.1149,851.0935,851.072,851.0507,851.0293,851.0078,850.9865,850.9651,850.9437,850.9223,850.9009,850.8796,850.8582,850.8367,850.8154,850.794,850.7726,850.7513,850.7299,850.7085,850.6871,850.6658,850.6444,850.623,850.6017,850.5803,850.559,850.5376,850.5162,850.4949,850.4735,850.4521,850.4308,850.4094,850.3881,850.3667,850.3453,850.324,850.3027,850.2813,850.2599,850.2386,850.2172,850.196,850.1745,850.1531
855.311,855.2894,855.2678,855.2463,855.2246,855.2029,855.1814,855.1598,855.1382,855.1166,855.0949,855.0734,855.0517,855.0302,855.0086,854.9871,854.9655,854.9438,854.9223,854.9006,854.8791,854.8575,854.8359,854.8143,854.7928,854.7712,854.7496,854.728,854.7065,854.6849,854.4781,806.6649,803.6764,801.7638,799.9945,798.233,796.4792,794.7375,793.0092,791.5978,790.6432,789.9254,789.2087,788.4935,787.7794,787.0667,786.3552,785.6451,779.637,779.1586,778.6808,778.2036,777.727,777.2509,776.7755,776.3006,775.8263,775.3526,774.8794,774.4067,773.9348,773.4634,773.2582,773.9166,774.6267,775.2692,775.1158,774.7302,774.3447,773.9597,773.5751,773.1909,772.8069,772.4235,772.0405,771.6577,771.2755,770.8934,770.5118,770.1306,769.7883,769.5576,769.3269,769.0965,768.8661,768.6359,768.4059,768.176,767.9462,767.7166,767.4871,767.2577,767.0285,766.7994,766.5704,766.3416,766.1129,765.8843,765.656,765.4276,765.1996,764.9716,764.7438,764.5159,764.2883,764.0609,763.836,763.71,763.6045,763.4991,763.3937,763.2883,763.1829,763.0777,762.9724,762.8671,762.7618,762.6566,762.5515,762.4464,762.3412,762.2361,762.131,762.026,761.9211,761.8161,761.7112,761.6062,761.5013,761.396,761.2938,761.1974,761.1051,761.0211,760.9371,760.8737,760.9195,760.9559,760.9926,761.0292,761.0658,761.1024,761.1389,761.1755,761.2121,761.2487,761.2853,761.3219,761.3585,761.395,761.4316,761.4683,761.5049,761.5415,761.5782,761.6147,761.6514,761.688,761.7247,761.7614,761.798,761.8346,761.8713,761.9079,761.9446,761.9813,762.069,762.222,762.3751,762.535,762.7475,762.9602,763.173,763.3859,763.5989,763.812,764.0253,764.2387,764.4521,764.6658,764.8795,765.0934,765.3073,765.5215,765.7356,765.95,766.1645,766.379,766.5939,766.8099,767.026,767.2422,767.4586,767.6793,767.9763,768.3904,768.8333,769.2767,769.7207,770.1652,770.6102,771.0557,771.5016,771.9482,772.3953,772.8428,773.2909,773.7395,774.1886,774.6383,775.0884,775.6088,776.132,776.6557,777.1802,777.7055,778.2314,778.7628,779.4818,780.2452,781.0103,781.7767,782.5449,783.3144,784.0854,784.8935,785.7058,786.5197,787.3353,788.1525,788.9715,789.7922,790.6146,791.4387,792.3151,793.4776,794.6436,796.0733,797.5385,799.0089,800.4847,801.9662,803.4531,804.9456,806.7916,811.8005,817.4971,849.8073,849.9861,849.9648,849.9434,849.9221,849.9007,849.8793,849.8581,849.8367,849.8155,849.7941,849.7728,849.7514,849.7301,849.7087,849.6875,849.6661,849.6448,849.6235,849.6021,849.5809,849.5595,849.5381,849.5168,849.4956,849.4742,849.4529,849.4316,849.4103,849.389,849.3677,849.3464,849.3251,849.3037,849.2825,849.2612,849.2399,849.2186,849.1973,849.1759,849.1547,849.1334,849.1121,849.0909,849.0695,849.0482,849.027,849.0057,848.9844,848.9631,848.9418,848.9205,848.8993,848.878,848.8566,848.8354,848.8141,848.7928,848.7715,848.7502,848.7289,848.7078,848.6865,848.6652,848.6439,848.6226,848.6013,848.5801,848.5588,848.5375,848.5163,848.495,848.4738,848.4525,848.4313,848.4099,848.3887,848.3675,848.3463,848.325,848.3037,848.2825,848.2612,848.24,848.2188,848.1974,848.1762,848.155,848.1337
853.267,853.2454,853.2241,853.2025,853.181,853.1595,853.1381,853.1165,853.095,853.0735,853.0521,853.0305,853.009,852.9875,852.9661,852.9446,852.9231,852.9017,852.8801,852.8586,852.8372,852.8156,852.7942,852.7727,852.7512,852.7297,852.7083,852.6868,852.6653,852.6439,852.6224,852.6008,851.7852,805.2614,802.2831,800.392,798.6288,796.8734,795.1254,793.3853,791.6528,790.7565,790.0204,789.3036,788.5882,787.8738,787.161,786.4495,780.1149,779.5581,779.0593,778.5779,778.1008,777.6243,777.1484,776.6731,776.1983,775.7241,775.2505,774.7773,774.3049,773.8331,773.4832,773.9932,774.7033,775.4148,775.5422,775.1237,774.7357,774.3503,773.9653,773.5807,773.1964,772.8126,772.429,772.046,771.6632,771.2808,770.899,770.5173,770.1367,769.8976,769.6668,769.4361,769.2056,768.9752,768.745,768.5149,768.2849,768.0551,767.8253,767.5958,767.3663,767.137,766.9078,766.6788,766.4499,766.2212,765.9926,765.7641,765.5358,765.3076,765.0795,764.8515,764.6237,764.3961,764.1686,764.0051,763.8995,763.7941,763.6885,763.5831,763.4777,763.3723,763.2669,763.1616,763.0562,762.951,762.8457,762.7405,762.6353,762.5323,762.4273,762.3346,762.2503,762.1661,762.0818,761.9976,761.9134,761.8292,761.7451,761.661,761.5768,761.4927,761.4086,761.3245,761.3407,761.3773,761.4139,761.4506,761.4872,761.5238,761.5604,761.597,761.6337,761.6703,761.7069,761.7437,761.7802,761.8169,761.8535,761.8902,761.9268,761.9635,762.0001,762.0369,762.0735,762.1101,762.1469,762.1835,762.2202,762.2568,762.2936,762.3303,762.367,762.4037,762.4713,762.6768,762.8906,763.1044,763.3184,763.5326,763.7468,763.9612,764.1757,764.3903,764.605,764.8199,765.0349,765.2499,765.4651,765.6805,765.8959,766.1115,766.3272,766.543,766.759,766.975,767.1913,767.4075,767.6462,767.9221,768.1981,768.4744,768.7723,769.1896,769.6334,770.0778,770.5227,770.968,771.4139,771.8605,772.3074,772.7548,773.2028,773.6512,774.1003,774.5499,775.0392,775.5615,776.0845,776.6082,777.1326,777.6578,778.1836,778.7102,779.2375,779.805,780.5547,781.3202,782.0873,782.856,783.6277,784.4373,785.2485,786.0616,786.8762,787.6926,788.5106,789.3303,790.1517,790.9748,791.7997,792.6263,793.6523,795.015,796.4761,797.9427,799.4274,800.9071,802.3901,803.9,805.4266,808.1314,813.6517,819.3746,847.8255,847.9886,847.9674,847.9462,847.9249,847.9037,847.8824,847.8612,847.84,847.8187,847.7976,847.7763,847.7551,847.7339,847.7126,847.6915,847.6703,847.649,847.6278,847.6066,847.5853,847.5641,847.5428,847.5216,847.5004,847.4791,847.458,847.4368,847.4156,847.3945,847.3732,847.3521,847.3307,847.3096,847.2883,847.267,847.246,847.2247,847.2036,847.1824,847.1611,847.14,847.1188,847.0976,847.0763,847.0552,847.034,847.0128,846.9916,846.9705,846.9493,846.928,846.9069,846.8857,846.8646,846.8433,846.8221,846.801,846.7798,846.7587,846.7375,846.7163,846.6951,846.674,846.6528,846.6316,846.6105,846.5892,846.5681,846.5468,846.5258,846.5046,846.4834,846.4623,846.4412,846.4199,846.3988,846.3777,846.3565,846.3353,846.3141,846.293,846.2718,846.2507,846.2296,846.2084,846.1872,846.1661,846.145,846.1238
851.2327,851.2114,851.1899,851.1685,851.1472,851.1257,851.1044,851.0829,851.0615,851.0402,851.0188,850.9974,850.9761,850.9547,850.9333,850.9119,850.8906,850.8691,850.8477,850.8264,850.805,850.7836,850.7622,850.7408,850.7194,850.698,850.6766,850.6553,850.6339,850.6125,850.5912,850.5698,850.5485,850.137,806.8527,803.8627,800.8948,799.0249,797.2677,795.5182,793.7763,792.095,791.1906,790.3094,789.4417,788.6828,787.9684,787.2553,786.5436,780.3012,779.7326,779.1647,778.5977,778.0558,777.5459,777.0496,776.5707,776.0961,775.6219,775.1485,774.6755,774.2032,773.7416,774.0698,774.78,775.4916,776.0137,775.7424,775.3237,774.9055,774.4877,774.0704,773.6535,773.2388,772.8469,772.4346,772.0516,771.6686,771.2864,770.9045,770.5228,770.238,770.007,769.7761,769.5453,769.3147,769.0843,768.8539,768.6238,768.3937,768.1638,767.934,767.7044,767.4749,767.2456,767.0163,766.7873,766.5582,766.3295,766.1008,765.8723,765.6439,765.4156,765.1874,764.9595,764.7317,764.5038,764.3015,764.1948,764.0893,763.9837,763.8781,763.7727,763.6693,763.5723,763.4834,763.3989,763.3144,763.2299,763.1454,763.061,762.9766,762.8921,762.8077,762.7233,762.639,762.5546,762.4703,762.386,762.3018,762.2175,762.1332,762.0491,761.9649,761.8806,761.7965,761.7544,761.7991,761.8358,761.8724,761.9091,761.9457,761.9824,762.019,762.0557,762.0925,762.1291,762.1658,762.2024,762.2391,762.2758,762.3126,762.3492,762.3859,762.4225,762.4594,762.496,762.5328,762.5695,762.6062,762.6429,762.6791,762.7374,762.8208,762.8999,762.9739,763.0662,763.268,763.4821,763.6963,763.9106,764.1252,764.3397,764.5544,764.7692,764.9841,765.1992,765.4144,765.6297,765.8451,766.0607,766.2764,766.4922,766.7081,766.9241,767.1402,767.3566,767.6131,767.8889,768.165,768.4412,768.7176,768.9943,769.2711,769.5724,769.9905,770.4352,770.8805,771.3263,771.7727,772.2195,772.6669,773.1147,773.5632,774.0121,774.4704,774.9919,775.5142,776.037,776.5609,777.0851,777.6102,778.1359,778.6625,779.1897,779.7176,780.2462,780.8641,781.6303,782.3982,783.1729,783.9816,784.7919,785.6039,786.4176,787.2331,788.05,788.8688,789.6893,790.5114,791.3458,792.1817,793.024,794.1128,795.6036,797.0999,798.6019,800.1095,801.6229,803.1419,804.6668,806.7824,811.0093,815.9606,845.246,846.0217,846.0005,845.9794,845.9583,845.9371,845.916,845.8949,845.8737,845.8525,845.8315,845.8103,845.7892,845.7681,845.7469,845.7259,845.7048,845.6836,845.6625,845.6414,845.6202,845.5992,845.578,845.5569,845.5358,845.5146,845.4936,845.4724,845.4514,845.4303,845.4091,845.3881,845.3669,845.3459,845.3247,845.3036,845.2825,845.2614,845.2403,845.2191,845.1981,845.177,845.1559,845.1348,845.1136,845.0927,845.0715,845.0504,845.0294,845.0082,844.9871,844.966,844.9449,844.9239,844.9027,844.8817,844.8607,844.8396,844.8184,844.7974,844.7764,844.7552,844.7341,844.7131,844.692,844.671,844.6499,844.6288,844.6077,844.5867,844.5656,844.5445,844.5235,844.5024,844.4814,844.4603,844.4392,844.4182,844.3972,844.376,844.3549,844.3339,844.3129,844.2919,844.2708,844.2498,844.2286,844.2076,844.1866,844.1655,844.1444,844.1234
849.2081,849.1868,849.1655,849.1443,849.1229,849.1016,849.0804,849.0591,849.0378,849.0165,848.9952,848.9739,848.9527,848.9314,848.91,848.8888,848.8675,848.8463,848.825,848.8036,848.7823,848.7612,848.7399,848.7186,848.6973,848.676,848.6548,848.6335,848.6122,848.5909,848.5698,848.5484,848.527,848.5059,848.2979,808.4502,805.4484,802.4689,799.5184,797.6625,795.9112,794.1677,792.5695,791.6854,790.8031,789.9228,789.0445,788.1681,787.3593,786.529,780.5445,779.9755,779.4075,778.84,778.2735,777.7078,777.1431,776.5789,776.0397,775.5338,775.0501,774.5737,774.1015,774.1464,774.8568,775.5685,776.2816,776.3881,775.9687,775.5498,775.1313,774.7133,774.2957,773.8786,773.4619,773.0457,772.6299,772.2146,771.7997,771.3853,770.9713,770.6142,770.3832,770.1523,769.9216,769.691,769.4606,769.2303,769.0001,768.7701,768.5402,768.3104,768.0807,767.8514,767.622,767.3928,767.1638,766.9348,766.7061,766.4774,766.2488,766.0204,765.7922,765.5641,765.3361,765.1083,764.8806,764.6663,764.5509,764.4662,764.3814,764.2967,764.212,764.1273,764.0427,763.958,763.8733,763.7887,763.7042,763.6196,763.535,763.4505,763.366,763.2815,763.197,763.1125,763.0281,762.9437,762.8593,762.7749,762.6905,762.6062,762.5219,762.4376,762.3532,762.269,762.1965,762.2214,762.2581,762.2948,762.3315,762.3682,762.4048,762.4416,762.4783,762.515,762.5518,762.5884,762.6251,762.6619,762.6986,762.7354,762.7721,762.8088,762.8456,762.8823,762.9191,762.9659,763.0493,763.1328,763.2162,763.2997,763.3779,763.452,763.5261,763.6003,763.6854,763.8601,764.0746,764.2891,764.5038,764.7186,764.9335,765.1486,765.3637,765.5789,765.7944,766.0098,766.2255,766.4413,766.6571,766.8732,767.0892,767.3055,767.58,767.8558,768.1319,768.4081,768.6845,768.9611,769.2379,769.5148,769.7921,770.0695,770.3716,770.793,771.2387,771.6849,772.1317,772.579,773.0267,773.475,773.9238,774.4232,774.9447,775.4668,775.9897,776.5133,777.0376,777.5626,778.0883,778.6147,779.1418,779.6697,780.1983,780.7276,781.2576,781.9409,782.7188,783.5263,784.3358,785.1469,785.9698,786.7944,787.6165,788.4626,789.3105,790.1604,791.012,791.8655,792.7474,793.7953,794.8788,796.3569,797.8561,799.3609,800.8715,802.3877,803.9096,806.1259,809.0876,814.0155,819.0036,843.6775,844.0428,844.0219,844.0008,843.9797,843.9587,843.9376,843.9166,843.8956,843.8746,843.8536,843.8325,843.8114,843.7904,843.7693,843.7484,843.7273,843.7063,843.6852,843.6642,843.6432,843.6222,843.6011,843.5801,843.5591,843.5382,843.5172,843.4962,843.4752,843.4541,843.4331,843.4121,843.3911,843.3701,843.3491,843.3281,843.307,843.286,843.2651,843.2441,843.2231,843.2021,843.1812,843.1602,843.1392,843.1181,843.0971,843.0761,843.0551,843.0341,843.0131,842.9921,842.9711,842.9501,842.9292,842.9082,842.8872,842.8662,842.8453,842.8242,842.8032,842.7822,842.7612,842.7404,842.7194,842.6984,842.6774,842.6564,842.6354,842.6144,842.5936,842.5726,842.5516,842.5306,842.5098,842.4888,842.4678,842.4468,842.4258,842.4048,842.3839,842.363,842.342,842.321,842.3001,842.2792,842.2582,842.2373,842.2163,842.1954,842.1744,842.1534,842.1324
847.1931,847.1719,847.1507,847.1295,847.1083,847.0871,847.066,847.0447,847.0236,847.0023,846.9813,846.96,846.9388,846.9176,846.8965,846.8753,846.8541,846.8329,846.8118,846.7906,846.7694,846.7482,846.7271,846.7059,846.6848,846.6636,846.6424,846.6212,846.6,846.5789,846.5577,846.5366,846.5154,846.4942,846.473,846.4518,845.8397,807.0404,804.0492,801.0798,798.1508,796.3047,794.5594,793.066,792.1807,791.2973,790.416,789.5366,788.6591,787.7835,781.3582,780.788,780.2186,779.6501,779.0825,778.5156,777.9496,777.3843,776.8199,776.2563,775.6936,775.1316,774.5704,774.33,774.9336,775.6454,776.3586,776.8861,776.6147,776.1951,775.776,775.3572,774.939,774.5212,774.1038,773.6868,773.2704,772.8543,772.4388,772.0237,771.6089,771.195,770.9319,770.7007,770.4697,770.2387,770.0081,769.7774,769.5469,769.3166,769.0863,768.8562,768.6263,768.3965,768.1667,767.9373,767.7079,767.4786,767.2495,767.0206,766.7917,766.563,766.3345,766.106,765.8777,765.6495,765.4214,765.1937,765.0269,764.942,764.8571,764.7723,764.6875,764.6027,764.5179,764.4332,764.3484,764.2637,764.179,764.0943,764.0097,763.925,763.8405,763.7559,763.6713,763.5867,763.5021,763.4176,763.3331,763.2486,763.1641,763.0796,762.9953,762.9108,762.8264,762.742,762.6577,762.6348,762.6808,762.7175,762.7543,762.791,762.8278,762.8644,762.9012,762.938,762.9748,763.0115,763.0483,763.085,763.1218,763.1586,763.1946,763.2781,763.3615,763.4451,763.5286,763.6121,763.6957,763.7792,763.8564,763.9306,764.0049,764.0792,764.1535,764.2278,764.3029,764.4531,764.6679,764.8828,765.0978,765.313,765.5282,765.7436,765.959,766.1746,766.3904,766.6063,766.8222,767.0383,767.2714,767.5469,767.8228,768.0987,768.3749,768.6513,768.9279,769.2047,769.4817,769.7587,770.0362,770.3138,770.5915,770.8696,771.1721,771.5972,772.0438,772.491,772.9387,773.3868,773.8553,774.376,774.8974,775.4195,775.9423,776.4658,776.9901,777.515,778.0407,778.567,779.0941,779.6218,780.1504,780.6796,781.2152,781.7546,782.3284,783.1169,783.9533,784.7917,785.6317,786.4736,787.3174,788.1628,789.0102,789.8593,790.7103,791.5631,792.5063,793.5699,794.6365,795.7059,797.1116,798.6136,800.1214,801.6347,803.1539,805.4702,808.2637,812.0794,817.0439,841.3214,842.0941,842.0732,842.0522,842.0314,842.0104,841.9894,841.9684,841.9476,841.9266,841.9057,841.8847,841.8638,841.843,841.822,841.801,841.7801,841.7592,841.7382,841.7172,841.6964,841.6755,841.6545,841.6336,841.6126,841.5917,841.5709,841.55,841.529,841.5081,841.4872,841.4663,841.4454,841.4244,841.4036,841.3826,841.3617,841.3408,841.3199,841.2991,841.2782,841.2573,841.2364,841.2154,841.1945,841.1736,841.1528,841.1319,841.1109,841.0901,841.0692,841.0482,841.0273,841.0065,840.9856,840.9647,840.9438,840.9229,840.902,840.8812,840.8603,840.8393,840.8185,840.7976,840.7767,840.7559,840.735,840.7142,840.6932,840.6723,840.6515,840.6306,840.6097,840.5889,840.5681,840.5471,840.5263,840.5054,840.4845,840.4637,840.4429,840.4219,840.4011,840.3803,840.3594,840.3385,840.3177,840.2968,840.2759,840.2552,840.2343,840.2135,840.1926,840.1717,840.1508
845.1877,845.1666,845.1455,845.1243,845.1033,845.0823,845.0611,845.04,845.019,844.9979,844.9767,844.9556,844.9346,844.9135,844.8924,844.8713,844.8503,844.8292,844.8081,844.787,844.7659,844.7449,844.7238,844.7027,844.6816,844.6606,844.6395,844.6185,844.5974,844.5763,844.5552,844.5342,844.5131,844.4921,844.4709,844.4499,844.4289,844.4078,843.7986,805.7132,802.6591,799.6957,796.7767,794.9516,793.5631,792.6766,791.7922,790.9097,790.0292,789.1507,788.2249,781.6021,781.0316,780.4619,779.8931,779.325,778.7578,778.1914,777.6258,777.0611,776.4971,775.9341,775.3717,774.8102,775.0104,775.7224,776.4357,777.1503,777.2619,776.8416,776.4217,776.0023,775.5833,775.1647,774.7467,774.3292,773.912,773.4952,773.079,772.6632,772.2478,771.8329,771.4814,771.2499,771.0186,770.7873,770.5562,770.3253,770.0944,769.8638,769.6332,769.4028,769.1725,768.9424,768.7124,768.4825,768.2528,768.0233,767.7938,767.5645,767.3354,767.1063,766.8774,766.6486,766.42,766.1915,765.9632,765.735,765.5203,765.4184,765.3334,765.2485,765.1636,765.0787,764.9938,764.9089,764.824,764.7393,764.6545,764.5697,764.4849,764.4002,764.3155,764.2307,764.1461,764.0613,763.9767,763.8922,763.8074,763.723,763.6383,763.5538,763.4692,763.3846,763.3003,763.2158,763.1313,763.0721,763.104,763.1408,763.1776,763.2144,763.2511,763.2879,763.3247,763.3615,763.3983,763.4351,763.507,763.5905,763.674,763.7576,763.8411,763.9247,764.0083,764.092,764.1757,764.2593,764.3355,764.4099,764.4842,764.5587,764.6329,764.7074,764.7818,764.8563,764.9307,765.0522,765.2622,765.4774,765.6927,765.9082,766.1238,766.3396,766.5554,766.7713,766.9874,767.2382,767.5138,767.7896,768.0655,768.3417,768.6181,768.8946,769.1714,769.4483,769.7255,770.0029,770.2804,770.5582,770.8361,771.1143,771.3926,771.6713,771.9745,772.4031,772.8506,773.2988,773.808,774.3287,774.8501,775.3722,775.8949,776.4184,776.9424,777.4742,778.0073,778.5388,779.0794,779.6207,780.1628,780.7057,781.2493,781.7939,782.3943,782.9955,783.657,784.4948,785.3341,786.1754,787.0184,787.8633,788.71,789.5585,790.4088,791.2609,792.2817,793.3447,794.4107,795.4796,796.5511,797.8678,799.3726,800.8833,802.3997,804.8155,807.6045,810.4129,815.0933,821.1516,839.778,840.1335,840.1127,840.0919,840.071,840.0502,840.0294,840.0085,839.9877,839.9669,839.946,839.9252,839.9043,839.8835,839.8627,839.8419,839.821,839.8002,839.7794,839.7585,839.7376,839.7168,839.696,839.6752,839.6544,839.6335,839.6128,839.5919,839.5711,839.5503,839.5294,839.5086,839.4877,839.467,839.4462,839.4254,839.4046,839.3838,839.363,839.3421,839.3214,839.3005,839.2797,839.259,839.2382,839.2173,839.1966,839.1757,839.155,839.1341,839.1133,839.0925,839.0718,839.051,839.0302,839.0094,838.9887,838.9678,838.9471,838.9262,838.9055,838.8846,838.8638,838.8431,838.8224,838.8015,838.7808,838.76,838.7392,838.7184,838.6977,838.6768,838.6561,838.6353,838.6146,838.5938,838.573,838.5522,838.5314,838.5107,838.4899,838.4692,838.4484,838.4276,838.4069,838.3862,838.3654,838.3446,838.3239,838.3031,838.2823,838.2616,838.2408,838.2201,838.1993,838.1786
843.1918,843.1707,843.1498,843.1288,843.1078,843.0868,843.0659,843.0449,843.0239,843.0028,842.9818,842.9608,842.9399,842.9189,842.8979,842.8769,842.856,842.835,842.814,842.793,842.772,842.7509,842.73,842.709,842.6881,842.6671,842.6461,842.6251,842.6042,842.5832,842.5623,842.5413,842.5203,842.4993,842.4785,842.4575,842.4365,842.4155,842.3945,842.3735,841.7736,804.4001,801.3558,798.3346,795.4074,794.0607,793.1732,792.2877,791.4041,790.5225,789.6429,782.4263,781.8463,781.2754,780.7054,780.136,779.5677,779.0002,778.4333,777.8675,777.3023,776.7381,776.1746,775.612,775.2603,775.7993,776.5128,777.2275,777.7595,777.4891,777.0685,776.6483,776.2287,775.8094,775.3907,774.9725,774.5546,774.1372,773.7202,773.3038,772.8876,772.4721,772.0602,771.7999,771.5682,771.3366,771.1052,770.8739,770.6427,770.4117,770.1808,769.9501,769.7195,769.4891,769.2587,769.0286,768.7985,768.5685,768.3387,768.1093,767.8797,767.6505,767.4212,767.1921,766.9631,766.7343,766.5057,766.2772,766.0488,765.8953,765.8104,765.7253,765.6403,765.5552,765.4702,765.3853,765.3004,765.2154,765.1305,765.0457,764.9608,764.8759,764.7911,764.7063,764.6215,764.5367,764.4519,764.3672,764.2825,764.1978,764.1131,764.0284,763.9438,763.8592,763.7746,763.6899,763.6055,763.524,763.5277,763.5645,763.6013,763.6382,763.675,763.7359,763.8195,763.9031,763.9867,764.0703,764.154,764.2377,764.3214,764.405,764.4888,764.5725,764.6563,764.7401,764.8152,764.8896,764.9642,765.0386,765.1132,765.1876,765.2621,765.3366,765.4113,765.4858,765.5604,765.6532,765.8574,766.0729,766.2887,766.5045,766.7203,766.9365,767.2052,767.4807,767.7564,768.0324,768.3085,768.5848,768.8614,769.1381,769.415,769.6923,769.9695,770.247,770.5248,770.8028,771.0809,771.3593,771.6377,771.9164,772.1954,772.4745,772.7803,773.241,773.7687,774.2958,774.8231,775.3587,775.8949,776.4319,776.9695,777.5079,778.0471,778.5871,779.1277,779.6691,780.2114,780.7543,781.298,781.8881,782.4886,783.0898,783.692,784.2953,785.0367,785.8774,786.7197,787.564,788.41,789.2579,790.1076,790.9977,792.0574,793.1198,794.1851,795.2533,796.3243,797.3983,798.6255,800.1332,801.6466,804.1619,806.9463,809.7501,813.1522,818.9412,837.4517,838.2029,838.1821,838.1614,838.1406,838.1198,838.0991,838.0784,838.0576,838.0369,838.0161,837.9954,837.9747,837.954,837.9332,837.9125,837.8917,837.8711,837.8503,837.8295,837.8088,837.7881,837.7673,837.7466,837.726,837.7051,837.6845,837.6638,837.6429,837.6224,837.6016,837.5807,837.5601,837.5394,837.5186,837.498,837.4772,837.4565,837.4358,837.4151,837.3944,837.3737,837.353,837.3323,837.3115,837.2908,837.2701,837.2494,837.2287,837.2081,837.1873,837.1666,837.1459,837.1253,837.1045,837.0838,837.0631,837.0425,837.0219,837.001,836.9803,836.9597,836.939,836.9183,836.8976,836.877,836.8564,836.8356,836.8149,836.7942,836.7736,836.7529,836.7322,836.7115,836.6908,836.6702,836.6495,836.6288,836.6082,836.5874,836.5668,836.5461,836.5255,836.5048,836.4841,836.4634,836.4427,836.4221,836.4015,836.3807,836.36,836.3395,836.3188,836.2982,836.2775,836.2569,836.2362,836.2155
841.2051,841.1842,841.1633,841.1425,841.1216,841.1007,841.0798,841.0589,841.038,841.017,840.9963,840.9754,840.9545,840.9335,840.9127,840.8918,840.871,840.8501,840.8292,840.8083,840.7874,840.7664,840.7457,840.7247,840.7039,840.683,840.6622,840.6413,840.6203,840.5995,840.5787,840.5577,840.5369,840.516,840.4952,840.4742,840.4534,840.4326,840.4117,840.3909,840.3701,840.3491,839.9329,803.0912,800.0569,797.0453,794.7488,793.6704,792.7838,791.8991,791.0164,790.1357,782.6626,782.0905,781.5193,780.9489,780.3793,779.8105,779.2427,778.6755,778.1094,777.5439,776.9792,776.4153,775.8524,775.8914,776.5898,777.3048,778.0209,778.1377,777.7164,777.2955,776.8752,776.4553,776.0358,775.6168,775.1983,774.7802,774.3625,773.9453,773.5286,773.1122,772.6964,772.3506,772.1185,771.8867,771.6549,771.4233,771.1918,770.9604,770.7293,770.4982,770.2673,770.0364,769.8058,769.5754,769.345,769.1148,768.8846,768.6547,768.4249,768.1952,767.9656,767.7363,767.507,767.2778,767.0488,766.82,766.5912,766.3827,766.2878,766.2026,766.1176,766.0324,765.9473,765.8623,765.7772,765.6923,765.6072,765.5222,765.4373,765.3522,765.2673,765.1824,765.0975,765.0126,764.9278,764.843,764.758,764.6733,764.5885,764.5037,764.419,764.3342,764.2495,764.1649,764.0801,763.9963,763.9721,764.0485,764.1323,764.2159,764.2996,764.3833,764.467,764.5508,764.6346,764.7183,764.8022,764.8859,764.9698,765.0536,765.1376,765.221,765.2955,765.3701,765.4446,765.5193,765.5938,765.6685,765.743,765.8176,765.8923,765.9669,766.0417,766.1163,766.191,766.2766,766.4536,766.6694,766.8968,767.1721,767.4476,767.7233,767.9993,768.2753,768.5518,768.8282,769.1049,769.3818,769.6589,769.9362,770.2164,770.4957,770.7765,771.0576,771.3388,771.6202,771.9019,772.1837,772.4658,772.7479,773.0634,773.412,773.8023,774.3364,774.8712,775.4066,775.9429,776.48,777.0177,777.5562,778.0955,778.6354,779.1762,779.7177,780.2599,780.8029,781.3826,781.9822,782.5828,783.1842,783.7866,784.3899,784.9942,785.6183,786.4213,787.265,788.1103,788.9575,789.8065,790.774,791.8329,792.8948,793.9595,795.0271,796.0975,797.1709,798.2471,799.3845,800.8951,803.5095,806.2893,809.0885,811.9072,816.7426,823.4664,836.0914,836.2604,836.2397,836.219,836.1984,836.1777,836.1571,836.1365,836.1158,836.0952,836.0745,836.0538,836.0331,836.0126,835.9919,835.9714,835.9507,835.9301,835.9094,835.8888,835.868,835.8475,835.8268,835.8062,835.7856,835.765,835.7444,835.7238,835.7031,835.6825,835.6619,835.6412,835.6206,835.6,835.5794,835.5587,835.5381,835.5175,835.4969,835.4762,835.4556,835.435,835.4144,835.3938,835.3732,835.3526,835.332,835.3114,835.2908,835.2702,835.2496,835.229,835.2084,835.1878,835.1671,835.1465,835.1259,835.1053,835.0847,835.0641,835.0435,835.0229,835.0023,834.9818,834.9612,834.9406,834.92,834.8994,834.8788,834.8582,834.8376,834.817,834.7964,834.7759,834.7553,834.7347,834.7142,834.6936,834.673,834.6525,834.6319,834.6113,834.5908,834.5702,834.5496,834.529,834.5084,834.4878,834.4673,834.4467,834.4261,834.4056,834.3851,834.3645,834.344,834.3234,834.3028,834.2822,834.2616
839.228,839.2071,839.1864,839.1655,839.1447,839.1239,839.1031,839.0823,839.0615,839.0408,839.02,838.9991,838.9784,838.9576,838.9369,838.916,838.8953,838.8745,838.8538,838.8329,838.8121,838.7914,838.7706,838.7498,838.729,838.7083,838.6874,838.6667,838.6459,838.6252,838.6044,838.5837,838.5627,838.5421,838.5213,838.5005,838.4798,838.459,838.4383,838.4174,838.3967,838.376,838.3552,838.3345,837.9202,801.7867,798.7621,795.921,794.7574,793.5983,792.4423,791.5109,790.6292,783.1415,782.4298,781.7716,781.1926,780.6227,780.0536,779.4854,778.9179,778.3512,777.7855,777.2204,776.6562,776.21,776.667,777.382,778.0984,778.6378,778.3882,777.9439,777.5228,777.1021,776.682,776.2623,775.843,775.4243,775.006,774.588,774.1707,773.7536,773.3371,772.9254,772.6697,772.4375,772.2054,771.9735,771.7417,771.51,771.2785,771.0472,770.8158,770.5847,770.3538,770.1229,769.8923,769.6617,769.4313,769.201,768.9709,768.7408,768.5109,768.2813,768.0516,767.8222,767.5928,767.3637,767.1346,766.903,766.7659,766.6806,766.5954,766.5103,766.425,766.3398,766.2546,766.1695,766.0844,765.9993,765.9142,765.8292,765.7441,765.6591,765.5741,765.4891,765.4041,765.3192,765.2412,765.1743,765.1135,765.0528,764.9921,764.9313,764.8706,764.8099,764.7491,764.6885,764.652,764.6966,764.7804,764.8642,764.9481,765.0319,765.1158,765.1996,765.2836,765.3675,765.4514,765.5355,765.6194,765.7018,765.7766,765.8511,765.9257,766.0005,766.0751,766.1498,766.2245,766.2992,766.374,766.4487,766.5235,766.5983,766.673,766.7479,766.8261,766.9431,767.1544,767.4328,767.7114,767.9902,768.2692,768.5483,768.8278,769.1074,769.3871,769.6672,769.9474,770.2278,770.5084,770.7893,771.0703,771.3515,771.6329,771.9146,772.1965,772.4785,772.7651,773.1133,773.4619,773.8107,774.16,774.5095,774.919,775.4547,775.991,776.528,777.0658,777.6044,778.1437,778.6838,779.2246,779.7662,780.3085,780.8778,781.4767,782.0764,782.6771,783.2787,783.8812,784.4846,785.0891,785.6943,786.3007,786.9661,787.8109,788.6573,789.511,790.5504,791.6088,792.67,793.7342,794.8012,795.8709,796.9438,798.0245,799.1373,800.312,803.075,805.9184,808.7821,811.6663,815.3861,821.2435,833.7958,834.3474,834.3268,834.3063,834.2858,834.2653,834.2446,834.2241,834.2036,834.183,834.1624,834.1419,834.1213,834.1007,834.0802,834.0597,834.0391,834.0186,833.998,833.9775,833.957,833.9364,833.9159,833.8954,833.8748,833.8542,833.8337,833.8132,833.7927,833.7722,833.7516,833.731,833.7104,833.69,833.6695,833.649,833.6284,833.6078,833.5873,833.5668,833.5463,833.5259,833.5054,833.4849,833.4644,833.4437,833.4232,833.4027,833.3823,833.3617,833.3412,833.3207,833.3002,833.2797,833.2592,833.2387,833.2182,833.1977,833.1771,833.1566,833.1362,833.1157,833.0952,833.0746,833.0541,833.0336,833.0132,832.9927,832.9722,832.9517,832.9312,832.9107,832.8902,832.8698,832.8492,832.8288,832.8082,832.7878,832.7673,832.7468,832.7263,832.7059,832.6854,832.6649,832.6445,832.624,832.6035,832.5831,832.5626,832.5421,832.5216,832.5011,832.4806,832.4602,832.4397,832.4193,832.3989,832.3783,832.3579,832.3374,832.3169
837.2599,837.2393,837.2186,837.1979,837.1772,837.1565,837.1358,837.1151,837.0944,837.0737,837.0529,837.0322,837.0116,836.9909,836.9702,836.9495,836.9288,836.9081,836.8875,836.8668,836.8461,836.8254,836.8047,836.7841,836.7634,836.7427,836.7221,836.7014,836.6807,836.66,836.6393,836.6187,836.598,836.5773,836.5566,836.536,836.5153,836.4948,836.4741,836.4534,836.4326,836.412,836.3914,836.3707,836.35,836.3293,835.9171,800.4864,797.4716,795.929,794.7662,793.6069,792.4509,791.1851,783.916,783.2029,782.4913,781.7808,781.0716,780.3698,779.7365,779.1603,778.5933,778.0272,777.4619,776.8973,776.7915,777.4593,778.1758,778.8937,779.3229,778.9324,778.4597,777.9874,777.5157,777.0447,776.5742,776.1113,775.6591,775.2318,774.8136,774.396,773.9788,773.562,773.2217,772.9892,772.7568,772.5245,772.2924,772.0604,771.8286,771.5967,771.3652,771.1338,770.9024,770.6713,770.4403,770.2094,769.9786,769.748,769.5175,769.2872,769.057,768.8269,768.5971,768.3672,768.1376,767.9082,767.6788,767.4495,767.2447,767.1593,767.0739,766.9885,766.9033,766.818,766.7327,766.6475,766.5622,766.4901,766.4291,766.3682,766.3072,766.2463,766.1853,766.1245,766.0635,766.0026,765.9417,765.8808,765.8199,765.759,765.6982,765.6373,765.5765,765.5157,765.4548,765.394,765.3332,765.3457,765.4296,765.5136,765.5975,765.6816,765.7656,765.8496,765.9337,766.0178,766.1018,766.1833,766.258,766.3328,766.4075,766.4822,766.557,766.6318,766.7066,766.7815,766.8563,766.9312,767.006,767.0842,767.2037,767.3265,767.4493,767.5721,767.6949,767.8178,768.0028,768.2817,768.561,768.8404,769.12,769.3998,769.6798,769.96,770.2404,770.5211,770.8019,771.083,771.3642,771.6457,771.9272,772.2092,772.4912,772.8147,773.1631,773.5117,773.8607,774.2099,774.5594,774.9093,775.2595,775.61,776.039,776.5762,777.1141,777.6527,778.192,778.7322,779.2731,779.8147,780.3736,780.9716,781.5707,782.1706,782.7714,783.3732,783.9758,784.5795,785.184,785.7894,786.3958,787.0032,787.6115,788.3575,789.272,790.327,791.3955,792.4865,793.593,794.7152,795.8535,796.995,798.1399,799.288,801.2247,803.7377,806.5858,809.4542,812.363,815.9948,821.5751,831.688,832.2655,832.4227,832.4023,832.3817,832.3613,832.3409,832.3204,832.3,832.2795,832.259,832.2386,832.2181,832.1977,832.1772,832.1567,832.1364,832.1158,832.0955,832.075,832.0545,832.0341,832.0136,831.9932,831.9728,831.9523,831.9319,831.9114,831.891,831.8705,831.85,831.8297,831.8092,831.7888,831.7683,831.7479,831.7275,831.707,831.6866,831.6662,831.6458,831.6252,831.605,831.5845,831.564,831.5436,831.5233,831.5028,831.4824,831.462,831.4415,831.4212,831.4007,831.3804,831.3599,831.3395,831.319,831.2987,831.2782,831.2579,831.2374,831.2171,831.1967,831.1763,831.1559,831.1354,831.1151,831.0947,831.0742,831.0538,831.0334,831.013,830.9926,830.9722,830.9519,830.9314,830.9111,830.8906,830.8704,830.8499,830.8295,830.8091,830.7887,830.7683,830.7479,830.7276,830.7072,830.6868,830.6664,830.6461,830.6257,830.6052,830.5849,830.5645,830.5442,830.5238,830.5034,830.483,830.4628,830.4423,830.422,830.4016,830.3813
835.3012,835.2806,835.26,835.2394,835.2188,835.1982,835.1776,835.157,835.1364,835.1158,835.0951,835.0745,835.0539,835.0333,835.0127,834.9922,834.9716,834.951,834.9304,834.9098,834.8892,834.8687,834.8481,834.8275,834.8069,834.7864,834.7658,834.7452,834.7246,834.7041,834.6835,834.6629,834.6423,834.6217,834.6012,834.5806,834.56,834.5395,834.5189,834.4984,834.4778,834.4573,834.4366,834.4161,834.3955,834.3749,834.3543,834.3338,833.9277,799.1903,797.1038,795.9377,794.775,793.6157,792.3461,784.692,783.9775,783.2645,782.5526,781.842,781.1328,780.4246,779.718,779.0125,778.318,777.7034,777.1708,777.5366,778.2533,778.9712,779.6905,779.9611,779.4872,779.0137,778.5408,778.0685,777.5967,777.1255,776.6549,776.1848,775.7154,775.2465,774.7781,774.3104,773.8511,773.5894,773.3546,773.1199,772.8854,772.6511,772.4168,772.1829,771.949,771.7151,771.4814,771.248,771.0146,770.7814,770.5483,770.3161,770.0853,769.8546,769.624,769.3937,769.1635,768.9332,768.7032,768.4715,768.2397,768.0081,767.7847,767.6881,767.6269,767.5657,767.5046,767.4435,767.3823,767.3212,767.2601,767.199,767.1379,767.0768,767.0158,766.9547,766.8936,766.8326,766.7715,766.7105,766.6496,766.5886,766.5276,766.4666,766.4056,766.3446,766.2836,766.2228,766.1618,766.101,766.04,766.0156,766.08,766.1641,766.2482,766.3323,766.4165,766.5006,766.5849,766.6654,766.7402,766.8149,766.8899,766.9647,767.0396,767.1144,767.1893,767.2643,767.3425,767.4647,767.5874,767.7103,767.8333,767.9562,768.0791,768.2021,768.3251,768.4482,768.5714,768.6945,768.853,769.1326,769.4125,769.6926,769.9728,770.2531,770.5338,770.8146,771.0956,771.377,771.6584,771.9401,772.2219,772.5164,772.8645,773.2128,773.5615,773.9105,774.2597,774.6094,774.9593,775.3095,775.6601,776.011,776.3622,776.7137,777.1622,777.7009,778.2404,778.7805,779.3214,779.8701,780.4673,781.0655,781.6647,782.2647,782.8658,783.4677,784.0704,784.6742,785.2789,785.8846,786.491,787.1034,787.7432,788.3849,789.2605,790.3832,791.509,792.6382,793.7704,794.906,796.0449,797.187,798.3323,800.1147,802.1515,804.4014,807.2543,810.1276,813.2343,816.6045,822.1931,829.6153,830.3707,830.5272,830.5068,830.4865,830.4661,830.4457,830.4254,830.405,830.3847,830.3643,830.3439,830.3236,830.3032,830.2829,830.2625,830.2422,830.2219,830.2014,830.181,830.1607,830.1404,830.12,830.0997,830.0793,830.059,830.0386,830.0183,829.9979,829.9776,829.9572,829.9369,829.9166,829.8962,829.8759,829.8555,829.8351,829.8148,829.7945,829.7741,829.7538,829.7335,829.7131,829.6927,829.6725,829.6521,829.6318,829.6115,829.5912,829.5709,829.5505,829.5302,829.5099,829.4895,829.4692,829.449,829.4286,829.4083,829.3879,829.3677,829.3474,829.327,829.3067,829.2865,829.2662,829.2457,829.2255,829.2052,829.1849,829.1646,829.1443,829.124,829.1036,829.0834,829.063,829.0427,829.0225,829.0022,828.9819,828.9615,828.9412,828.921,828.9006,828.8803,828.86,828.8398,828.8195,828.7993,828.7789,828.7586,828.7383,828.7181,828.6978,828.6776,828.6572,828.637,828.6166,828.5964,828.5762,828.5558,828.5356,828.5153,828.495,828.4747,828.4545
833.3516,833.3312,833.3106,833.2901,833.2696,833.2492,833.2286,833.2081,833.1876,833.1672,833.1465,833.1261,833.1056,833.0851,833.0646,833.0441,833.0236,833.0031,832.9825,832.9622,832.9417,832.9211,832.9005,832.8801,832.8596,832.8391,832.8186,832.7982,832.7777,832.7572,832.7368,832.7162,832.6958,832.6754,832.6548,832.6343,832.6138,832.5934,832.5729,832.5526,832.532,832.5115,832.4911,832.4706,832.4501,832.4297,832.4092,832.3888,832.3683,832.3478,831.9476,798.2822,797.1126,795.9465,794.7838,793.5104,785.4695,784.7537,784.0392,783.3259,782.6139,781.9032,781.1938,780.4857,779.7788,779.0733,778.3689,777.852,778.3306,779.0488,779.7682,780.4535,780.5173,780.0426,779.5685,779.0948,778.6219,778.1494,777.6776,777.2064,776.7357,776.2655,775.796,775.3269,774.8585,774.4407,774.2054,773.9703,773.7352,773.5004,773.2657,773.0311,772.7968,772.5624,772.3283,772.0942,771.8604,771.6266,771.3931,771.1596,770.9263,770.6932,770.4601,770.2273,769.9945,769.7619,769.528,769.2925,769.0573,768.8221,768.587,768.4188,768.3553,768.2918,768.2283,768.1648,768.1013,768.0379,767.9744,767.9109,767.848,767.7868,767.7256,767.6644,767.6033,767.5421,767.481,767.4198,767.3587,767.2976,767.2365,767.1754,767.1144,767.0532,766.9921,766.9312,766.8701,766.8091,766.748,766.6992,766.7314,766.8157,766.9,766.9843,767.0686,767.1481,767.2229,767.2979,767.3729,767.4478,767.5226,767.6028,767.7258,767.8486,767.9715,768.0945,768.2176,768.3405,768.4637,768.5867,768.71,768.8331,768.9564,769.0797,769.2031,769.3264,769.4498,769.5733,769.7214,769.9854,770.2659,770.5465,770.8273,771.1084,771.3896,771.6711,771.9528,772.2347,772.5661,772.9142,773.2626,773.6112,773.9603,774.3097,774.6594,775.0093,775.3595,775.7101,776.0611,776.4124,776.7639,777.1157,777.468,777.8206,778.2886,778.829,779.37,779.9636,780.5612,781.1595,781.7587,782.359,782.9684,783.6016,784.2365,784.8724,785.5092,786.1472,786.7861,787.4261,788.1119,788.9408,789.7714,790.6038,791.6983,792.8279,793.9608,795.0969,796.2363,797.3788,799.0079,801.039,803.0804,805.1322,807.9238,810.9001,814.1071,817.3394,824.6711,827.9124,828.4807,828.6404,828.6201,828.5999,828.5796,828.5593,828.539,828.5187,828.4984,828.4781,828.4579,828.4376,828.4174,828.3971,828.3768,828.3566,828.3362,828.316,828.2958,828.2756,828.2552,828.235,828.2147,828.1945,828.1742,828.154,828.1337,828.1135,828.0933,828.073,828.0527,828.0325,828.0123,827.9919,827.9717,827.9515,827.9312,827.911,827.8907,827.8705,827.8502,827.83,827.8098,827.7896,827.7693,827.7491,827.7288,827.7086,827.6884,827.6681,827.6479,827.6276,827.6074,827.5872,827.5669,827.5467,827.5265,827.5062,827.486,827.4658,827.4456,827.4254,827.4052,827.3849,827.3647,827.3445,827.3243,827.3041,827.2839,827.2637,827.2434,827.2233,827.2031,827.1829,827.1627,827.1425,827.1222,827.1021,827.0818,827.0616,827.0414,827.0212,827.0011,826.9808,826.9606,826.9404,826.9202,826.9,826.8798,826.8596,826.8395,826.8192,826.799,826.7789,826.7587,826.7385,826.7183,826.6981,826.6779,826.6578,826.6376,826.6173,826.5971,826.577,826.5569,826.5367
831.4111,831.3907,831.3702,831.3499,831.3295,831.309,831.2886,831.2682,831.2478,831.2274,831.207,831.1866,831.1663,831.1458,831.1254,831.1049,831.0847,831.0642,831.0438,831.0234,831.0031,830.9826,830.9622,830.9418,830.9214,830.9011,830.8806,830.8602,830.8398,830.8195,830.7991,830.7787,830.7583,830.738,830.7175,830.6971,830.6768,830.6563,830.636,830.6156,830.5953,830.5749,830.5545,830.5342,830.5138,830.4935,830.473,830.4526,830.4323,830.4119,830.3916,830.3713,829.9811,799.3057,797.1215,795.9552,794.6781,786.2487,785.5314,784.8154,784.1007,783.3873,782.6753,781.9644,781.2549,780.5467,779.8397,779.134,778.6467,779.1263,779.8459,780.5669,781.1836,781.0742,780.5988,780.124,779.6497,779.1761,778.703,778.2305,777.7585,777.2872,776.8164,776.3461,775.8765,775.4073,775.0581,774.8224,774.587,774.3516,774.1163,773.8812,773.6463,773.4115,773.1769,772.9423,772.7079,772.4737,772.2396,772.0057,771.7718,771.5381,771.3027,771.0662,770.8298,770.5936,770.3575,770.1215,769.8857,769.65,769.4146,769.1791,769.0889,769.0253,768.9617,768.8981,768.8345,768.7709,768.7074,768.6437,768.5802,768.5167,768.4532,768.3896,768.3261,768.2626,768.1991,768.1356,768.0721,768.0087,767.9468,767.8856,767.8244,767.7631,767.702,767.6408,767.5797,767.5186,767.4575,767.3962,767.3862,767.4684,767.5528,767.6313,767.7063,767.7814,767.864,767.9869,768.11,768.233,768.356,768.4791,768.6022,768.7255,768.8486,768.9719,769.0952,769.2184,769.3419,769.4653,769.5887,769.7122,769.8358,769.9594,770.0829,770.2065,770.3303,770.454,770.5901,770.84,771.1212,771.4023,771.6838,771.9655,772.268,772.6158,772.9639,773.3124,773.6611,774.0103,774.3595,774.7093,775.0594,775.4097,775.7602,776.1112,776.4625,776.8141,777.1661,777.5182,777.8709,778.2238,778.5818,778.9444,779.5034,780.1317,780.7608,781.391,782.0223,782.6545,783.2879,783.9222,784.5576,785.1938,785.8314,786.4698,787.1093,787.8391,788.6674,789.4973,790.3291,791.1626,791.9979,793.0177,794.1512,795.2878,796.4278,797.9042,799.9297,801.9655,804.0117,806.0682,808.5944,811.7679,814.9816,818.2208,825.5607,826.4319,826.7823,826.7621,826.742,826.7217,826.7017,826.6814,826.6612,826.641,826.6208,826.6005,826.5804,826.5603,826.5401,826.52,826.4998,826.4796,826.4594,826.4392,826.4191,826.3989,826.3787,826.3585,826.3384,826.3182,826.298,826.2778,826.2577,826.2375,826.2173,826.1973,826.1771,826.1569,826.1367,826.1166,826.0964,826.0763,826.0562,826.0359,826.0159,825.9956,825.9755,825.9554,825.9352,825.915,825.8949,825.8748,825.8547,825.8345,825.8143,825.7942,825.7741,825.754,825.7338,825.7136,825.6935,825.6734,825.6533,825.6331,825.6129,825.5929,825.5728,825.5527,825.5324,825.5123,825.4922,825.472,825.452,825.4318,825.4117,825.3916,825.3715,825.3513,825.3312,825.3112,825.291,825.2709,825.2508,825.2307,825.2106,825.1904,825.1703,825.1502,825.1301,825.11,825.0899,825.0698,825.0497,825.0297,825.0095,824.9894,824.9694,824.9492,824.9291,824.909,824.8889,824.8688,824.8488,824.8286,824.8085,824.7885,824.7684,824.7482,824.7282,824.7081,824.688,824.6679,824.6478,824.6277
829.4796,829.4593,829.439,829.4186,829.3983,829.3781,829.3577,829.3374,829.3171,829.2968,829.2765,829.2562,829.2357,829.2155,829.1952,829.1749,829.1546,829.1343,829.1141,829.0938,829.0734,829.0531,829.0328,829.0125,828.9922,828.9719,828.9517,828.9313,828.9111,828.8908,828.8705,828.8502,828.8298,828.8096,828.7893,828.769,828.7487,828.7285,828.7082,828.6879,828.6677,828.6473,828.627,828.6067,828.5865,828.5663,828.546,828.5256,828.5053,828.4851,828.4648,828.4446,828.4244,828.4039,828.1935,801.0331,798.6432,796.3636,787.1826,786.3265,785.5933,784.8771,784.1623,783.4488,782.7365,782.0256,781.316,780.6076,779.9006,779.4246,779.9237,780.6448,781.3671,781.9048,781.632,781.1559,780.6804,780.2055,779.7311,779.2573,778.7842,778.3116,777.8395,777.368,776.8972,776.4268,775.957,775.6766,775.4406,775.2047,774.9689,774.7333,774.4979,774.2625,774.0273,773.7922,773.5574,773.3226,773.0856,772.848,772.6106,772.3732,772.136,771.899,771.6621,771.4254,771.1887,770.9523,770.7159,770.4798,770.2438,770.0079,769.8303,769.7603,769.6964,769.6327,769.569,769.5053,769.4416,769.3779,769.3142,769.2506,769.187,769.1233,769.0597,768.996,768.9324,768.8689,768.8052,768.7417,768.6782,768.6146,768.551,768.4875,768.424,768.3605,768.2969,768.2335,768.1699,768.1068,768.0715,768.1253,768.2485,768.3715,768.4946,768.6176,768.7408,768.8641,768.9874,769.1107,769.234,769.3574,769.4808,769.6042,769.7277,769.8513,769.9749,770.0984,770.2221,770.3458,770.4695,770.5933,770.7171,770.841,770.9648,771.0887,771.2128,771.3367,771.4701,771.6966,771.9783,772.3176,772.6655,773.0137,773.3621,773.7109,774.0634,774.4216,774.7803,775.1392,775.4985,775.8581,776.218,776.5783,776.939,777.2999,777.6611,778.0229,778.3848,778.7471,779.1815,779.6205,780.0599,780.5,781.079,781.7098,782.3416,782.9744,783.6082,784.243,784.8789,785.5158,786.1537,786.7927,787.5665,788.3942,789.2236,790.0548,790.8876,791.7224,792.5588,793.3971,794.3417,795.4789,796.8034,798.8232,800.8535,802.894,805.0845,807.6338,810.6176,814.0503,817.5121,821.5111,824.3913,824.9326,824.9124,824.8923,824.8722,824.8521,824.832,824.812,824.7918,824.7718,824.7516,824.7316,824.7115,824.6914,824.6714,824.6512,824.6311,824.6111,824.5909,824.5709,824.5509,824.5307,824.5107,824.4907,824.4705,824.4505,824.4304,824.4103,824.3903,824.3702,824.3502,824.33,824.31,824.29,824.2699,824.2498,824.2297,824.2096,824.1896,824.1694,824.1494,824.1294,824.1093,824.0894,824.0692,824.0491,824.0291,824.0089,823.989,823.9689,823.9489,823.9287,823.9088,823.8887,823.8687,823.8486,823.8286,823.8086,823.7885,823.7685,823.7484,823.7284,823.7084,823.6883,823.6682,823.6483,823.6281,823.6082,823.5881,823.5682,823.548,823.5281,823.508,823.488,823.4679,823.448,823.4279,823.408,823.3878,823.3678,823.3478,823.3278,823.3077,823.2878,823.2676,823.2477,823.2277,823.2076,823.1876,823.1676,823.1476,823.1276,823.1075,823.0876,823.0676,823.0475,823.0276,823.0075,822.9875,822.9675,822.9476,822.9276,822.9075,822.8876,822.8675,822.8475,822.8275,822.8076,822.7876,822.7675,822.7476,822.7276
827.557,827.5367,827.5165,827.4963,827.4761,827.4559,827.4357,827.4155,827.3953,827.375,827.3548,827.3346,827.3144,827.2942,827.2739,827.2537,827.2335,827.2133,827.1931,827.1729,827.1527,827.1325,827.1123,827.0921,827.0718,827.0518,827.0315,827.0113,826.9911,826.9709,826.9507,826.9305,826.9103,826.8901,826.8699,826.8497,826.8295,826.8094,826.7892,826.769,826.7488,826.7286,826.7084,826.6882,826.6681,826.6478,826.6276,826.6074,826.5873,826.5672,826.5469,826.5269,826.5066,826.4864,826.4662,826.446,826.2446,825.4604,800.2711,788.4825,787.6235,786.7664,785.9111,785.0577,784.2239,783.5102,782.798,782.0869,781.3771,780.6686,780.2177,780.7227,781.4452,782.1691,782.6745,782.3584,781.8044,781.2513,780.7462,780.287,779.8126,779.3387,778.8654,778.3926,777.9205,777.449,776.9779,776.5472,776.296,776.0596,775.8234,775.5872,775.3512,775.1154,774.8769,774.6381,774.3995,774.1611,773.9229,773.6847,773.4468,773.2089,772.9711,772.7336,772.4962,772.2589,772.0218,771.7849,771.548,771.3113,771.0748,770.8384,770.6022,770.4965,770.4327,770.3688,770.305,770.2411,770.1773,770.1135,770.0497,769.986,769.9222,769.8584,769.7947,769.7309,769.6672,769.6035,769.5398,769.4761,769.4124,769.3716,769.3335,769.2955,769.2574,769.2194,769.1813,769.1433,769.1052,769.0673,769.0292,769.0524,769.1749,769.2977,769.4203,769.543,769.6658,769.7887,769.9115,770.0344,770.1572,770.2803,770.4033,770.5264,770.6494,770.7726,770.8957,771.0189,771.1422,771.2654,771.3888,771.5121,771.6356,771.759,771.8825,772.006,772.1499,772.3318,772.5139,772.7963,773.1533,773.5107,773.8685,774.2267,774.5851,774.9438,775.303,775.6625,776.0222,776.3823,776.7427,777.1035,777.4645,777.826,778.1878,778.5499,778.9808,779.4196,779.8589,780.2986,780.739,781.1797,781.6209,782.0627,782.6611,783.2944,783.9288,784.5641,785.2005,785.838,786.4764,787.2941,788.1212,788.95,789.7806,790.613,791.4471,792.2828,793.1205,793.96,794.8011,795.8337,798.2043,800.7129,803.2372,805.7773,808.3108,810.8527,814.2355,817.4835,820.2374,822.3626,822.9133,823.071,823.051,823.0309,823.0109,822.9909,822.9709,822.9509,822.9309,822.9109,822.8909,822.8709,822.8509,822.8309,822.8109,822.7909,822.771,822.751,822.7309,822.711,822.691,822.671,822.651,822.631,822.611,822.591,822.5711,822.5511,822.5311,822.5112,822.4911,822.4711,822.4512,822.4312,822.4113,822.3913,822.3713,822.3514,822.3314,822.3113,822.2914,822.2714,822.2514,822.2315,822.2115,822.1915,822.1716,822.1516,822.1317,822.1117,822.0917,822.0717,822.0518,822.0318,822.0118,821.9919,821.972,821.952,821.9321,821.9121,821.8922,821.8723,821.8523,821.8324,821.8123,821.7925,821.7725,821.7526,821.7326,821.7127,821.6927,821.6729,821.6529,821.6329,821.613,821.593,821.5732,821.5532,821.5333,821.5132,821.4933,821.4734,821.4535,821.4335,821.4137,821.3938,821.3738,821.3538,821.334,821.314,821.2941,821.2741,821.2543,821.2343,821.2144,821.1945,821.1745,821.1547,821.1348,821.1148,821.0949,821.075,821.0551,821.0352,821.0153,820.9954,820.9755,820.9556,820.9357,820.9158,820.8959,820.8759,820.856,820.8362
825.6434,825.6232,825.6031,825.583,825.5629,825.5427,825.5225,825.5025,825.4824,825.4622,825.442,825.4219,825.4018,825.3818,825.3615,825.3414,825.3214,825.3013,825.2811,825.261,825.2409,825.2208,825.2007,825.1805,825.1605,825.1403,825.1202,825.1002,825.08,825.0599,825.0399,825.0197,824.9996,824.9795,824.9595,824.9393,824.9193,824.8992,824.879,824.8589,824.8389,824.8187,824.7986,824.7786,824.7584,824.7383,824.7183,824.6982,824.6782,824.658,824.6379,824.6179,824.5978,824.5776,824.5576,824.5375,824.5173,824.4973,824.303,823.8985,789.8754,788.9248,788.0648,787.2067,786.3506,785.4962,784.6437,783.7931,782.9442,782.1481,781.4383,781.0165,781.5233,782.2473,782.9726,783.5518,783.3879,782.8326,782.278,781.7242,781.1711,780.6189,780.0674,779.5168,778.9669,778.4647,778.0015,777.5298,777.1533,776.9164,776.6763,776.4366,776.1968,775.9573,775.7179,775.4787,775.2396,775.0006,774.7618,774.5232,774.2846,774.0463,773.808,773.57,773.3321,773.0943,772.8567,772.6192,772.3818,772.1447,771.9076,771.6707,771.434,771.2407,771.1703,771.1063,771.0424,770.9784,770.9144,770.8505,770.7943,770.7561,770.718,770.6797,770.6415,770.6033,770.5652,770.527,770.4888,770.4507,770.4125,770.3744,770.3362,770.298,770.2599,770.2218,770.1837,770.1455,770.1074,770.0692,770.0311,770.0159,770.1096,770.2326,770.3556,770.4786,770.6017,770.7247,770.848,770.9711,771.0944,771.2177,771.3409,771.4642,771.5877,771.7111,771.8345,771.9581,772.0816,772.2051,772.3288,772.5048,772.6869,772.8691,773.0516,773.2339,773.4164,773.599,773.7817,774.0318,774.3901,774.7486,775.1075,775.4668,775.8264,776.1863,776.5466,776.9071,777.268,777.6293,777.9908,778.3528,778.7802,779.2188,779.6578,780.0974,780.5374,780.978,781.4191,781.8606,782.3026,782.7451,783.1882,783.6461,784.2496,784.8855,785.5224,786.197,787.0218,787.8484,788.6766,789.5067,790.3384,791.2078,792.1548,793.1041,794.0557,795.0308,796.9312,798.8854,801.3981,803.9268,806.4584,808.9888,811.5351,814.421,817.6966,820.5464,820.9158,821.2577,821.2377,821.2177,821.1978,821.178,821.158,821.1381,821.1182,821.0982,821.0784,821.0585,821.0385,821.0186,820.9987,820.9788,820.9589,820.939,820.9191,820.8992,820.8793,820.8594,820.8395,820.8196,820.7997,820.7798,820.7599,820.7401,820.7202,820.7003,820.6804,820.6605,820.6406,820.6206,820.6008,820.5809,820.561,820.5412,820.5212,820.5014,820.4815,820.4615,820.4417,820.4219,820.402,820.3821,820.3622,820.3423,820.3224,820.3026,820.2827,820.2628,820.243,820.223,820.2032,820.1833,820.1635,820.1436,820.1238,820.1038,820.084,820.0641,820.0443,820.0244,820.0046,819.9847,819.9649,819.9451,819.9252,819.9054,819.8854,819.8656,819.8458,819.8259,819.8061,819.7863,819.7664,819.7465,819.7267,819.7068,819.687,819.6672,819.6473,819.6275,819.6075,819.5877,819.5679,819.548,819.5282,819.5084,819.4885,819.4687,819.4489,819.4291,819.4093,819.3893,819.3695,819.3497,819.33,819.3101,819.2903,819.2704,819.2506,819.2308,819.211,819.1912,819.1713,819.1516,819.1318,819.1119,819.0921,819.0723,819.0524,819.0326,819.0128,818.993,818.9733,818.9534
823.7386,823.7186,823.6984,823.6785,823.6584,823.6384,823.6183,823.5984,823.5782,823.5582,823.5381,823.5182,823.498,823.4781,823.458,823.438,823.418,823.398,823.378,823.358,823.338,823.3179,823.2978,823.2778,823.2578,823.2378,823.2178,823.1978,823.1777,823.1578,823.1378,823.1177,823.0977,823.0777,823.0577,823.0377,823.0178,822.9977,822.9777,822.9577,822.9377,822.9177,822.8977,822.8778,822.8577,822.8377,822.8177,822.7977,822.7778,822.7577,822.7378,822.7178,822.6978,822.6778,822.6578,822.6378,822.6178,822.5978,822.5779,822.5579,822.5379,821.9499,790.2304,789.3676,788.5067,787.6476,786.7904,785.9352,785.0817,784.2302,783.3802,782.5323,781.8759,782.3333,783.0509,783.7778,784.4153,784.4202,783.8633,783.3073,782.7521,782.1976,781.6439,781.0909,780.5389,779.9875,779.437,778.8872,778.3382,778.0015,777.7479,777.4943,777.2462,777.001,776.7559,776.511,776.2662,776.0217,775.7772,775.5329,775.2888,775.0449,774.801,774.5574,774.3138,774.0704,773.8272,773.5842,773.3413,773.0985,772.8559,772.6135,772.3712,772.129,772.0426,771.9997,771.9568,771.9158,771.8775,771.8392,771.801,771.7626,771.7243,771.686,771.6478,771.6095,771.5712,771.5329,771.4947,771.4564,771.4182,771.3799,771.3417,771.3034,771.2651,771.2269,771.1887,771.1505,771.1122,771.074,771.0358,771.0052,771.0466,771.1698,771.2931,771.4164,771.5399,771.6632,771.7866,771.9102,772.0337,772.1573,772.2809,772.4045,772.5282,772.6777,772.86,773.0423,773.2247,773.4073,773.5898,773.7725,773.9553,774.1381,774.3211,774.504,774.6872,774.8704,775.0536,775.2728,775.6307,775.9904,776.3505,776.7109,777.0716,777.4327,777.7941,778.1559,778.5797,779.0181,779.457,779.8962,780.3361,780.7764,781.2172,781.6585,782.1004,782.5427,782.9855,783.4288,783.8726,784.317,784.7618,785.2313,785.9255,786.8176,787.754,788.6929,789.6339,790.577,791.5225,792.4704,793.4204,794.3727,796.242,798.1482,800.0635,802.0845,804.6147,807.1335,809.6681,813.6822,816.0253,818.7442,819.1119,819.4523,819.4324,819.4126,819.3928,819.3729,819.3531,819.3333,819.3135,819.2937,819.2739,819.254,819.2342,819.2144,819.1945,819.1747,819.1549,819.1351,819.1152,819.0955,819.0757,819.0558,819.036,819.0162,818.9963,818.9765,818.9567,818.9369,818.9171,818.8973,818.8775,818.8578,818.838,818.8182,818.7983,818.7785,818.7587,818.739,818.7191,818.6993,818.6795,818.6598,818.64,818.6202,818.6003,818.5805,818.5608,818.5411,818.5212,818.5015,818.4818,818.4619,818.4421,818.4223,818.4025,818.3828,818.3629,818.3431,818.3234,818.3036,818.2838,818.264,818.2443,818.2245,818.2048,818.1849,818.1651,818.1454,818.1256,818.1059,818.0861,818.0663,818.0466,818.0269,818.0071,817.9874,817.9675,817.9478,817.928,817.9083,817.8885,817.8687,817.849,817.8292,817.8095,817.7897,817.77,817.7502,817.7305,817.7108,817.6909,817.6712,817.6516,817.6318,817.612,817.5922,817.5726,817.5529,817.533,817.5133,817.4935,817.4739,817.454,817.4343,817.4147,817.3949,817.3751,817.3555,817.3357,817.316,817.2961,817.2765,817.2567,817.237,817.2173,817.1976,817.1779,817.1581,817.1384,817.1187,817.099,817.0793
821.8425,821.8226,821.8025,821.7826,821.7628,821.7427,821.7228,821.7029,821.6829,821.663,821.6431,821.6231,821.6032,821.5833,821.5634,821.5434,821.5235,821.5035,821.4836,821.4637,821.4437,821.4237,821.4038,821.384,821.364,821.3441,821.3242,821.3042,821.2843,821.2643,821.2444,821.2245,821.2047,821.1848,821.1648,821.1449,821.1249,821.1051,821.0851,821.0652,821.0453,821.0254,821.0056,820.9856,820.9657,820.9457,820.9258,820.9059,820.8861,820.8662,820.8463,820.8264,820.8065,820.7866,820.7667,820.7468,820.727,820.707,820.6871,820.6672,820.6473,820.6275,820.2445,791.5403,790.6746,789.8108,788.9489,788.0889,787.2309,786.3745,785.5201,784.6676,783.8168,782.9679,783.1765,783.8563,784.5847,785.265,785.4551,784.8968,784.3393,783.7826,783.2267,782.6715,782.1172,781.5636,781.0108,780.4589,779.9076,779.3571,779.0164,778.7621,778.5079,778.2538,778,777.7462,777.4926,777.2393,776.9931,776.748,776.5031,776.2585,776.0138,775.7693,775.5251,775.281,775.037,774.7932,774.5495,774.306,774.0626,773.8195,773.5765,773.3334,773.1144,773.0627,773.0197,772.9768,772.9338,772.8907,772.8478,772.8048,772.7618,772.7188,772.6758,772.6329,772.5898,772.5469,772.504,772.4646,772.4263,772.3879,772.3495,772.3113,772.2729,772.2345,772.1962,772.1578,772.1195,772.0812,772.0428,772.0046,771.9969,772.1094,772.2329,772.3566,772.4802,772.604,772.7277,772.8515,773.0331,773.2156,773.3979,773.5806,773.7633,773.9461,774.1288,774.3118,774.4948,774.678,774.8611,775.0444,775.2277,775.4113,775.5947,775.7784,775.962,776.1459,776.3298,776.5344,776.8753,777.2363,777.5974,777.959,778.3794,778.8174,779.256,779.6953,780.1348,780.5749,781.0155,781.4566,781.903,782.3692,782.8444,783.3202,783.7966,784.2736,784.7511,785.2292,785.8951,786.5881,787.2823,788.066,789.0054,789.9473,790.8914,791.8375,792.786,793.7369,795.554,797.4568,799.3688,801.2899,804.1261,808.2927,812.4478,814.4324,816.7887,817.1329,817.316,817.6548,817.6351,817.6153,817.5956,817.5758,817.5561,817.5364,817.5166,817.4969,817.4772,817.4575,817.4376,817.418,817.3983,817.3785,817.3588,817.3391,817.3194,817.2996,817.2799,817.2602,817.2404,817.2207,817.2009,817.1813,817.1616,817.1417,817.1221,817.1024,817.0826,817.0629,817.0432,817.0234,817.0038,816.9841,816.9644,816.9446,816.9249,816.9051,816.8855,816.8658,816.846,816.8264,816.8067,816.787,816.7672,816.7476,816.7278,816.7082,816.6884,816.6687,816.649,816.6293,816.6097,816.59,816.5703,816.5507,816.5309,816.5112,816.4916,816.4719,816.4522,816.4325,816.4128,816.3932,816.3734,816.3538,816.334,816.3144,816.2947,816.2749,816.2553,816.2357,816.216,816.1964,816.1766,816.157,816.1372,816.1176,816.0979,816.0782,816.0585,816.0389,816.0192,815.9995,815.9799,815.9602,815.9406,815.9209,815.9013,815.8817,815.8619,815.8423,815.8226,815.803,815.7833,815.7637,815.744,815.7244,815.7047,815.6851,815.6653,815.6458,815.626,815.6065,815.5867,815.5672,815.5475,815.5279,815.5083,815.4886,815.469,815.4493,815.4296,815.41,815.3904,815.3707,815.3511,815.3315,815.3118,815.2922,815.2726,815.253,815.2333,815.2137
819.9551,819.9353,819.9154,819.8956,819.8757,819.8559,819.8361,819.8161,819.7963,819.7764,819.7566,819.7368,819.7169,819.6971,819.6772,819.6574,819.6376,819.6177,819.5979,819.5781,819.5582,819.5384,819.5186,819.4987,819.4789,819.459,819.4392,819.4194,819.3995,819.3797,819.3599,819.34,819.3202,819.3004,819.2805,819.2608,819.241,819.2211,819.2013,819.1815,819.1617,819.1418,819.122,819.1022,819.0823,819.0626,819.0428,819.0229,819.0032,818.9833,818.9635,818.9437,818.9238,818.904,818.8842,818.8644,818.8446,818.8249,818.8051,818.7853,818.7654,818.7457,818.7259,818.7061,818.317,793.1627,791.7541,790.3506,789.3917,788.5308,787.6718,786.8145,785.9592,785.1056,784.2538,784.0685,784.6634,785.3933,786.1224,786.538,785.9393,785.3741,784.8159,784.2585,783.702,783.1461,782.5911,782.0368,781.4834,780.9307,780.3788,780.0339,779.7788,779.5239,779.2693,779.0147,778.7603,778.5062,778.252,777.9981,777.7445,777.491,777.2375,776.9852,776.7402,776.4953,776.2505,776.0059,775.7615,775.5173,775.2731,775.0291,774.7853,774.5417,774.2982,774.1288,774.0856,774.0425,773.9994,773.9563,773.9132,773.8701,773.827,773.7839,773.7408,773.6978,773.6547,773.6116,773.5685,773.5254,773.4823,773.4393,773.3962,773.3531,773.3102,773.2672,773.224,773.181,773.1381,773.095,773.0527,773.0143,772.9893,773.0511,773.2063,773.3888,773.5714,773.7542,773.9368,774.1197,774.3026,774.4857,774.6686,774.8519,775.0352,775.2185,775.4019,775.5855,775.7692,775.9529,776.1367,776.3205,776.5045,776.6885,776.8726,777.0569,777.2412,777.4263,777.6119,777.8162,778.202,778.6722,779.1431,779.6144,780.0862,780.5588,781.0318,781.5054,781.9796,782.4544,782.9297,783.4056,783.8821,784.3592,784.8369,785.4272,786.1194,786.8127,787.5074,788.2033,788.9003,789.5986,790.3208,791.2057,792.1527,793.102,794.8671,796.7666,800.5803,804.4669,807.855,811.2962,815.0421,815.3889,815.5673,815.9046,815.8849,815.8654,815.8457,815.826,815.8064,815.7866,815.7671,815.7474,815.7278,815.7081,815.6884,815.6688,815.6491,815.6295,815.6099,815.5902,815.5706,815.5509,815.5313,815.5116,815.4919,815.4723,815.4527,815.433,815.4134,815.3937,815.3741,815.3544,815.3349,815.3151,815.2956,815.2759,815.2563,815.2367,815.2171,815.1974,815.1778,815.1582,815.1385,815.119,815.0994,815.0798,815.0601,815.0405,815.0209,815.0012,814.9816,814.962,814.9424,814.9228,814.9031,814.8836,814.864,814.8443,814.8247,814.8051,814.7855,814.7658,814.7463,814.7266,814.7071,814.6874,814.6678,814.6483,814.6286,814.6091,814.5894,814.5698,814.5503,814.5306,814.511,814.4915,814.4719,814.4523,814.4327,814.4131,814.3935,814.374,814.3543,814.3348,814.3152,814.2956,814.276,814.2565,814.2368,814.2173,814.1978,814.1781,814.1585,814.139,814.1194,814.0998,814.0803,814.0607,814.0411,814.0216,814.002,813.9824,813.9628,813.9433,813.9236,813.9041,813.8845,813.865,813.8455,813.8259,813.8063,813.7867,813.7672,813.7476,813.728,813.7085,813.689,813.6694,813.6498,813.6303,813.6107,813.5912,813.5717,813.5521,813.5325,813.513,813.4935,813.4739,813.4543,813.4349,813.4153,813.3958,813.3762,813.3567
818.0765,818.0568,818.0369,818.0172,817.9974,817.9777,817.9579,817.9381,817.9184,817.8987,817.8788,817.8591,817.8394,817.8195,817.7999,817.7801,817.7604,817.7405,817.7208,817.701,817.6814,817.6616,817.6417,817.6221,817.6024,817.5826,817.5627,817.5432,817.5234,817.5037,817.4839,817.4642,817.4444,817.4247,817.4049,817.3852,817.3655,817.3457,817.326,817.3063,817.2866,817.2668,817.2471,817.2275,817.2076,817.188,817.1682,817.1485,817.1288,817.1091,817.0894,817.0696,817.05,817.0302,817.0104,816.9908,816.9711,816.9513,816.9316,816.912,816.8922,816.8725,816.8528,816.8331,816.8134,816.7936,816.4182,795.1343,793.6682,792.2578,790.8527,789.4523,788.1131,787.2549,786.3986,785.5439,784.9769,785.4753,786.2035,786.9363,787.6207,788.0855,787.413,786.6387,785.8659,785.0945,784.3248,783.6293,783.0655,782.5106,781.9565,781.4031,781.0541,780.7983,780.5427,780.2874,780.0322,779.7772,779.5223,779.2676,779.013,778.7587,778.5044,778.2504,777.9965,777.7429,777.4893,777.236,776.9827,776.7322,776.4874,776.2427,775.998,775.7537,775.5094,775.2653,775.1545,775.1113,775.0681,775.0248,774.9816,774.9384,774.8951,774.8519,774.8087,774.7655,774.7223,774.679,774.6359,774.5927,774.5495,774.5063,774.4764,774.473,774.4696,774.4662,774.4628,774.4594,774.4561,774.4527,774.4493,774.4458,774.4424,774.4418,774.6118,774.796,774.9805,775.165,775.3495,775.5342,775.719,775.9039,776.0888,776.2739,776.459,776.6442,776.8295,777.0149,777.2003,777.3858,777.5715,777.7572,777.943,778.1289,778.4023,778.6824,778.9628,779.2435,779.5244,779.8052,780.1709,780.6436,781.1167,781.5904,782.0647,782.5396,783.0151,783.4911,783.9676,784.4448,784.9598,785.6512,786.3437,787.0374,787.7325,788.4287,789.1262,789.8249,790.5249,791.226,791.9284,792.8183,796.8246,801.3301,804.8083,813.3206,813.4864,813.6541,813.8259,814.1619,814.1422,814.1227,814.1031,814.0836,814.0639,814.0445,814.0248,814.0052,813.9857,813.9662,813.9465,813.927,813.9074,813.8879,813.8683,813.8488,813.8292,813.8097,813.79,813.7706,813.751,813.7314,813.7119,813.6924,813.6727,813.6532,813.6336,813.6141,813.5945,813.575,813.5554,813.5359,813.5164,813.4968,813.4772,813.4578,813.4382,813.4186,813.399,813.3796,813.3599,813.3404,813.3208,813.3014,813.2818,813.2623,813.2427,813.2231,813.2037,813.1841,813.1646,813.1451,813.1256,813.1061,813.0866,813.0671,813.0475,813.028,813.0084,812.989,812.9695,812.95,812.9304,812.9108,812.8913,812.8718,812.8524,812.8328,812.8133,812.7937,812.7742,812.7547,812.7353,812.7157,812.6963,812.6767,812.6572,812.6377,812.6182,812.5987,812.5792,812.5597,812.5402,812.5207,812.5012,812.4817,812.4622,812.4427,812.4232,812.4037,812.3842,812.3647,812.3452,812.3257,812.3063,812.2867,812.2673,812.2477,812.2283,812.2089,812.1894,812.1699,812.1505,812.1309,812.1115,812.092,812.0726,812.053,812.0336,812.0141,811.9946,811.9751,811.9556,811.9361,811.9166,811.8972,811.8777,811.8583,811.8388,811.8193,811.7999,811.7805,811.761,811.7415,811.7221,811.7026,811.6832,811.6637,811.6443,811.6248,811.6053,811.5859,811.5665,811.547,811.5275,811.5081
