109.7732,109.7186,109.6813,109.6526,109.039,108.9856,108.9665,108.9651,107.3196,107.6412,107.8187,107.8742,107.8725,107.8105,107.6854,107.6497,122.0863,122.1598,122.2073,122.2501,122.2929,122.3254,122.3418,122.356,122.367,122.3505,112.2276,112.1762,111.35,111.3623,112.0988,112.0941,112.1119,111.4827,111.3012,111.271,111.2505,111.2566,111.2428,111.1489,111.0845,111.0563,113.3925,113.407,113.4418,113.5376,113.7256,113.7586,109.3217,109.6597,109.7903,109.8261,109.825,109.781,109.7149,109.7128,121.9762,121.9601,115.4586,109.0882,109.0547,109.0265,109.0038,108.9815,108.9692,108.9596,108.9536,108.9701,108.9885,109.0226,109.0649,115.6691,118.9616,118.9811,119.0488,119.1918,121.6512,115.3203,115.2027,108.4718,108.4011,108.3483,107.827,107.7212,107.6738,107.6557,107.6511,107.6739,106.1073,106.7201,106.7677,106.7663,106.7353,106.6348,106.4967,106.443,108.1717,108.1781,108.2153,108.2966,108.6901,108.5785,108.5334,105.1572,105.2045,105.2662,105.3346,105.4087,105.4856,105.5636,105.6483,105.7401,105.8337,105.9452,106.1018,106.3567,121.0109,120.9951,120.9792,120.9632,120.9473,120.9314,120.9154,120.8993,117.1473,117.0794,117.0509,117.0481,106.8179,106.8299,106.8636,106.9103,106.9755,107.1104,120.7244,106.5339,106.405,106.3595,106.3506,106.3672,106.4296,116.7617,116.7053,116.641,116.5936,113.4795,113.4786,113.5367,108.9755,109.1012,109.2046,109.1191,109.0926,109.0848,106.5248,106.4411,106.365,106.2943,106.2487,106.2071,106.1659,106.1247,106.0836,106.0425,106.0014,105.961,105.9228,105.891,105.8608,105.8306,105.8004,105.7702,105.7401,105.712,105.6889,105.6661,105.6469,105.635,119.9077,119.8625,119.8142,119.7648,119.6841,119.5964,119.5074,119.3653,115.6059,115.2701,115.1621,115.1668,115.2435,115.3853,115.5672,115.8018,116.0709,116.4054,116.828,117.5089,152.9996,152.9876,152.9677,152.9477,152.9278,152.9078,152.8879,152.868,152.8481,152.8281,152.8082,152.7883,152.7684,152.7485,152.7286,152.7087,152.6889,152.669,152.6491,152.6292,152.6094,152.5895,152.5697,152.5498,152.53,152.5101,152.4903,152.4705,152.4507,152.4309,152.411,152.3912,152.3714,152.3517,152.3319,152.3121,152.2923,152.2725,152.2528,152.233,152.2132,152.1935,152.1737,152.154,152.1342,152.1145,152.0948,152.0751,152.0553,152.0356,152.0159,151.9962,151.9765,151.9568,151.9371,151.9175,151.8978,151.8781,151.8584,151.8388,151.8191,151.7995,151.7798,151.7602,151.7406,151.7209,151.7013,151.6817,151.6621,151.6425,151.6228,151.6032,151.5837,151.5641,151.5445,151.5249,151.5053,151.4857,151.4662,151.4466,151.4271,151.4075,151.388,151.3684,151.3489,151.3294,151.3098,151.2903,151.2708,151.2513,151.2318,151.2123,151.1928,151.1733,151.1538,151.1344,151.1149,151.0954,151.0759,151.0565,151.037,151.0176,150.9981,150.9787,150.9593,150.9398,150.9204,150.901,150.8816,150.8622,150.8428,150.8234,150.804,150.7846,150.7652,150.7458,150.7265,150.7071,150.6877,150.6684,150.649,150.6297,150.6103,150.591,150.5716,150.5523,150.533,150.5136,150.4943,150.475,150.4557,150.4364,150.4171,150.3978,150.3786,150.3593,150.34,150.3207
109.7735,109.7189,109.6796,109.6503,109.0664,109.0126,108.9923,108.9806,107.4438,107.9222,108.012,108.0233,107.9877,107.8818,107.778,122.0289,122.0966,122.149,122.1813,122.1723,122.1635,122.1403,122.1165,122.0926,122.0688,122.045,112.2373,112.176,112.14,112.11,112.0943,112.0844,112.1,111.5229,111.3391,111.2905,111.2695,111.2741,111.2196,111.1495,111.1072,113.4317,113.4148,113.4272,113.4581,113.538,113.7101,109.448,109.4895,109.8967,109.9382,109.9428,109.9047,109.836,109.8148,121.8014,121.8529,121.8973,121.8174,115.4668,109.0669,109.0351,109.0084,108.9856,108.9647,108.9538,108.9444,108.9432,108.9616,108.9809,109.0203,109.0694,118.9634,118.9815,119.0468,119.1821,115.4223,115.2544,115.1978,115.6488,108.4132,108.361,107.8719,107.7542,107.7049,107.6847,107.6784,106.3234,106.7675,106.8536,106.8786,106.8635,106.8148,106.71,106.618,108.1962,108.1992,108.2072,108.2468,108.3366,108.6509,108.5692,112.8343,112.8159,112.802,109.7492,105.379,105.4369,105.5054,105.5797,105.6569,105.7357,105.8203,105.9117,106.0072,106.1461,106.3387,121.0052,120.9891,120.9715,120.9539,120.9353,120.913,120.87,117.1594,117.0925,117.0643,117.0619,117.0665,106.8674,106.8928,106.9308,106.9887,107.0828,120.7344,106.576,106.4539,106.4084,106.4014,106.4202,106.4848,116.7266,116.6629,116.5921,116.5443,113.5763,113.5511,113.6083,113.628,113.6239,109.2037,106.6578,106.5542,106.4771,106.4011,106.3374,106.277,106.2195,106.1749,106.1345,106.0959,106.0573,106.0187,105.979,105.9401,105.9085,105.8789,105.8535,113.07,113.0381,113.0107,112.9964,120.1269,120.1077,120.0837,120.0505,120.0163,119.9822,119.9403,119.8877,119.8352,119.7826,119.6992,119.6115,119.5225,115.7457,115.0982,114.8893,114.8288,114.8836,114.9873,115.1486,115.3532,115.6067,115.9054,116.2525,116.7895,117.5366,153.0202,153.0082,152.9883,152.9683,152.9483,152.9284,152.9085,152.8885,152.8686,152.8487,152.8288,152.8088,152.789,152.769,152.7491,152.7292,152.7094,152.6895,152.6696,152.6497,152.6299,152.61,152.5901,152.5703,152.5504,152.5306,152.5108,152.4909,152.4711,152.4513,152.4315,152.4117,152.3919,152.3721,152.3523,152.3325,152.3127,152.2929,152.2731,152.2534,152.2336,152.2139,152.1941,152.1743,152.1546,152.1349,152.1151,152.0954,152.0757,152.056,152.0363,152.0165,151.9969,151.9771,151.9575,151.9378,151.9181,151.8984,151.8787,151.8591,151.8394,151.8197,151.8001,151.7805,151.7608,151.7412,151.7215,151.7019,151.6823,151.6627,151.6431,151.6235,151.6039,151.5843,151.5647,151.5451,151.5255,151.5059,151.4864,151.4668,151.4473,151.4277,151.4081,151.3886,151.3691,151.3495,151.33,151.3105,151.2909,151.2714,151.2519,151.2324,151.2129,151.1934,151.1739,151.1545,151.135,151.1155,151.096,151.0766,151.0571,151.0376,151.0182,150.9987,150.9793,150.9599,150.9405,150.921,150.9016,150.8822,150.8628,150.8434,150.824,150.8046,150.7852,150.7658,150.7464,150.7271,150.7077,150.6883,150.669,150.6496,150.6303,150.6109,150.5916,150.5722,150.5529,150.5336,150.5143,150.495,150.4756,150.4563,150.437,150.4177,150.3984,150.3792,150.3599,150.3406
109.7743,109.7192,109.678,109.6475,109.0938,109.0397,109.0179,107.5816,108.0112,108.1035,108.1311,108.1245,108.0728,107.9509,107.9281,121.9577,121.9422,121.9268,121.9098,121.8832,121.8576,121.832,121.8064,121.7809,121.7553,121.7298,121.5959,112.1739,112.1358,112.1043,112.0871,112.0752,112.0881,112.0926,111.3613,111.3101,111.2883,111.2867,111.2182,111.1638,113.4716,113.4565,113.4378,113.4476,113.4749,113.5411,112.9395,109.5504,109.9969,110.0507,110.0606,110.0284,109.9622,109.9289,121.4916,121.5605,121.6047,121.6489,121.6862,115.472,115.4785,109.0475,109.0156,108.9904,108.9674,108.9486,108.9384,108.9296,108.9347,108.9532,108.9769,109.0179,109.0727,118.9826,119.0457,119.1572,115.3276,115.2155,115.652,115.7013,108.4335,108.3741,107.9167,107.7873,107.7368,107.7138,107.6974,106.4651,106.9123,106.9724,106.9803,106.9545,106.8866,106.7849,106.788,108.2338,108.2267,108.2366,108.278,108.3766,108.625,108.5835,112.8474,112.8036,109.831,109.7246,109.673,109.6249,105.5499,105.608,105.6767,105.7511,105.8256,105.9015,105.9885,106.081,106.1914,106.3593,120.8403,120.8196,120.7938,120.7679,120.7421,120.6992,117.1714,117.1056,117.0776,117.0757,117.0844,106.9237,106.9251,106.9576,107.0038,107.0702,107.2125,106.6181,106.5028,106.4593,106.4523,106.4732,106.5408,116.6902,116.621,116.5461,116.4951,116.4404,113.6174,113.6657,113.6875,106.7251,106.5918,106.5131,106.4492,106.3887,106.3282,106.2692,106.2137,106.1601,106.1202,106.0895,106.0615,106.0417,112.887,120.2933,120.2824,120.2667,120.2492,113.1469,113.076,113.0355,113.0043,112.9973,120.1463,120.1239,120.0998,120.0664,120.0323,119.9981,119.956,119.9034,119.8508,119.7983,119.7144,119.6267,119.5375,114.9809,114.6442,114.533,114.5336,114.6093,114.7461,114.9227,115.1541,115.4174,115.7462,116.1529,116.8093,117.5644,153.0408,153.0288,153.0089,152.9889,152.9689,152.949,152.929,152.9091,152.8892,152.8692,152.8493,152.8294,152.8095,152.7896,152.7697,152.7498,152.7299,152.71,152.6901,152.6702,152.6504,152.6305,152.6106,152.5908,152.5709,152.5511,152.5312,152.5114,152.4916,152.4717,152.4519,152.4321,152.4123,152.3925,152.3727,152.3529,152.3331,152.3133,152.2935,152.2738,152.254,152.2342,152.2145,152.1947,152.175,152.1552,152.1355,152.1158,152.096,152.0763,152.0566,152.0369,152.0172,151.9975,151.9778,151.9581,151.9384,151.9187,151.899,151.8794,151.8597,151.84,151.8204,151.8007,151.7811,151.7614,151.7418,151.7222,151.7025,151.6829,151.6633,151.6437,151.6241,151.6045,151.5849,151.5653,151.5457,151.5261,151.5066,151.487,151.4674,151.4479,151.4283,151.4088,151.3892,151.3697,151.3501,151.3306,151.3111,151.2916,151.272,151.2525,151.233,151.2135,151.194,151.1745,151.1551,151.1356,151.1161,151.0966,151.0772,151.0577,151.0383,151.0188,150.9994,150.9799,150.9605,150.9411,150.9216,150.9022,150.8828,150.8634,150.844,150.8246,150.8052,150.7858,150.7664,150.7471,150.7277,150.7083,150.6889,150.6696,150.6502,150.6309,150.6115,150.5922,150.5728,150.5535,150.5342,150.5149,150.4956,150.4763,150.4569,150.4377,150.4184,150.399,150.3798,150.3605
109.7768,109.7195,109.6767,109.6462,109.1213,109.0667,109.034,108.0081,108.1524,108.2142,108.226,108.2028,108.1192,108.0562,121.6258,121.6788,121.6586,121.634,121.6036,121.5731,121.5427,121.5126,121.4872,121.4618,121.437,121.4229,121.3549,112.1725,112.1317,112.0991,112.08,112.0664,112.0762,112.0837,111.3834,111.3298,111.3073,111.2932,111.2282,111.3772,113.498,113.4813,113.4611,113.4679,113.4927,113.0779,109.6499,110.0923,110.1535,110.1722,110.1514,110.0849,110.0456,121.1839,121.2429,121.2958,121.3487,121.4016,121.4457,121.4113,115.4804,115.4903,109.0279,108.9965,108.9723,108.9492,108.9328,108.923,108.9152,108.9263,108.9447,108.9734,109.0127,109.0717,119.0446,119.1009,115.2819,115.2189,115.6661,121.6526,108.4543,108.3871,108.3369,107.8209,107.7691,107.7412,106.6433,106.9404,107.0453,107.0869,107.0766,107.0385,106.9464,106.868,108.2816,108.2588,108.2542,108.266,108.3092,108.4166,108.6165,112.8617,112.8341,112.8028,109.7339,109.663,109.6266,109.6031,109.6124,120.9555,105.7227,105.7763,105.842,105.9124,105.9857,106.0669,106.1582,106.2544,106.4041,120.6139,120.6232,120.5975,120.5717,120.5309,117.1834,117.1187,117.091,117.0895,117.0985,117.1415,106.9675,106.9882,107.0252,107.0821,107.1792,106.6602,106.5518,106.5106,106.5034,106.5263,106.5974,116.6571,116.5795,116.4989,116.4459,116.3978,113.6753,113.7084,106.718,106.5932,106.5034,106.4401,106.3815,106.3263,106.273,106.2323,106.2021,112.9229,112.8643,112.7931,112.8327,112.8608,112.9259,120.3113,120.2987,120.2829,113.2509,113.1114,113.0555,113.0155,112.9946,120.1797,120.1625,120.14,120.1159,120.0824,120.0482,120.0141,119.9718,119.9191,119.8665,119.814,119.7296,119.6419,115.1221,114.4741,114.2632,114.1993,114.2535,114.3525,114.512,114.7105,114.9592,115.2518,115.5914,116.1018,116.8367,117.5921,153.0614,153.0494,153.0294,153.0095,152.9895,152.9696,152.9496,152.9297,152.9097,152.8898,152.8699,152.8499,152.83,152.8101,152.7902,152.7703,152.7504,152.7305,152.7106,152.6907,152.6709,152.651,152.6311,152.6113,152.5914,152.5715,152.5517,152.5318,152.512,152.4922,152.4724,152.4525,152.4327,152.4129,152.3931,152.3733,152.3535,152.3337,152.3139,152.2942,152.2744,152.2546,152.2349,152.2151,152.1953,152.1756,152.1559,152.1361,152.1164,152.0966,152.0769,152.0572,152.0375,152.0178,151.9981,151.9784,151.9587,151.939,151.9193,151.8997,151.88,151.8603,151.8407,151.821,151.8013,151.7817,151.762,151.7424,151.7228,151.7032,151.6835,151.6639,151.6443,151.6247,151.6051,151.5855,151.5659,151.5463,151.5268,151.5072,151.4876,151.468,151.4485,151.4289,151.4094,151.3898,151.3703,151.3508,151.3312,151.3117,151.2922,151.2727,151.2532,151.2336,151.2142,151.1947,151.1752,151.1557,151.1362,151.1167,151.0972,151.0778,151.0583,151.0389,151.0194,151,150.9805,150.9611,150.9417,150.9222,150.9028,150.8834,150.864,150.8446,150.8252,150.8058,150.7864,150.767,150.7477,150.7283,150.7089,150.6895,150.6702,150.6508,150.6315,150.6121,150.5928,150.5735,150.5541,150.5348,150.5155,150.4962,150.4769,150.4576,150.4382,150.419,150.3997,150.3804
109.7805,109.7198,109.6767,109.6465,109.1487,109.0938,107.8643,108.1786,108.2759,108.3146,108.3141,108.2698,108.1735,108.1693,121.4084,121.3883,121.3588,121.3285,121.2982,121.268,121.2377,121.2084,121.1801,121.1637,121.1496,121.1356,121.102,112.1712,112.1275,112.0945,112.0728,112.058,112.0646,112.0752,111.4056,111.3494,111.3266,111.2965,111.2604,111.4013,113.5135,113.506,113.4844,113.4883,113.5006,109.7654,110.1498,110.2321,110.2592,110.2544,110.2048,110.1585,120.9289,121.0155,121.0239,121.0324,121.0687,121.1214,121.1741,121.2269,115.4893,115.498,109.0603,109.0084,108.9778,108.9543,108.931,108.9173,108.9077,108.9015,108.9172,108.9349,108.9669,109.0062,119.0375,115.4049,115.2585,115.6579,115.6857,121.671,121.6546,108.4012,108.3483,107.8549,107.8016,107.7645,106.7802,107.097,107.1708,107.1901,107.1692,107.1169,107.0089,106.9676,108.3208,108.284,108.2817,108.2964,108.3406,108.4574,108.6327,112.8877,112.8166,109.7985,109.6673,109.6146,109.5822,109.5729,120.8753,120.83,120.7539,120.6046,105.8755,105.932,105.9994,106.0728,106.1487,106.2341,106.3256,106.454,106.6737,120.438,120.4151,120.3793,117.1955,117.1319,117.1045,117.1033,117.1124,117.1612,117.2154,107.0244,107.0528,107.0971,107.1653,106.7024,106.6007,106.5598,106.5545,106.5798,106.654,116.6385,116.538,116.4568,116.3967,116.3503,113.7037,106.7249,106.6192,106.5292,106.4486,106.3887,106.3515,109.1523,109.1783,109.2356,109.4217,112.9574,112.8848,112.8516,112.8571,112.8873,112.9537,120.3291,120.315,120.299,113.1542,113.0772,113.0351,113.0023,112.9939,120.201,120.1786,120.1562,120.1321,120.0984,120.0633,120.0292,119.9875,119.9348,119.8822,119.8297,119.7448,119.6571,114.3655,114.023,113.9108,113.9073,113.9787,114.114,114.2887,114.5136,114.7694,115.0945,115.4856,116.1181,116.8642,117.6199,153.082,153.07,153.05,153.0301,153.0101,152.9901,152.9702,152.9503,152.9303,152.9104,152.8904,152.8705,152.8506,152.8307,152.8107,152.7908,152.7709,152.751,152.7311,152.7112,152.6914,152.6715,152.6516,152.6317,152.6119,152.592,152.5722,152.5523,152.5325,152.5126,152.4928,152.473,152.4532,152.4334,152.4135,152.3938,152.3739,152.3541,152.3344,152.3146,152.2948,152.275,152.2552,152.2355,152.2157,152.196,152.1762,152.1565,152.1367,152.117,152.0973,152.0776,152.0578,152.0381,152.0184,151.9987,151.979,151.9593,151.9396,151.92,151.9003,151.8806,151.8609,151.8413,151.8216,151.802,151.7823,151.7627,151.743,151.7234,151.7038,151.6842,151.6645,151.6449,151.6253,151.6057,151.5861,151.5665,151.5469,151.5274,151.5078,151.4882,151.4687,151.4491,151.4296,151.41,151.3904,151.3709,151.3514,151.3318,151.3123,151.2928,151.2733,151.2538,151.2343,151.2148,151.1953,151.1758,151.1563,151.1368,151.1173,151.0979,151.0784,151.0589,151.0395,151.02,151.0006,150.9812,150.9617,150.9423,150.9229,150.9035,150.884,150.8646,150.8452,150.8258,150.8064,150.787,150.7677,150.7483,150.7289,150.7095,150.6902,150.6708,150.6514,150.6321,150.6127,150.5934,150.5741,150.5547,150.5354,150.5161,150.4968,150.4775,150.4582,150.4389,150.4196,150.4003
109.7854,109.7222,109.6764,109.6466,109.1761,108.0216,108.0884,108.3201,108.3933,108.4118,108.3938,108.3285,108.2442,121.0059,121.1188,121.0876,121.0589,121.0303,121.0016,120.973,120.9481,120.929,120.9113,120.8974,120.8834,120.8695,120.8555,112.1699,112.1234,112.0913,112.0667,112.0533,112.0544,112.065,111.4278,111.369,111.3456,111.3198,111.3621,111.4172,113.5428,113.531,113.5084,113.5087,109.8986,110.1923,110.3065,110.3449,110.3496,110.3149,110.2574,110.2896,120.7972,120.8056,120.814,120.8224,120.8308,120.8425,120.895,120.9475,120.9722,115.5033,115.517,109.033,108.9888,108.9597,108.9363,108.9136,108.9021,108.8935,108.8899,108.9075,108.9252,108.9604,109.004,115.327,115.2476,115.6743,121.6923,121.6876,121.6715,108.4205,108.3614,107.8899,107.8342,106.8819,107.09,107.2377,107.2859,107.2862,107.2602,107.1868,107.0819,107.0834,108.3462,108.3096,108.3093,108.3272,108.3722,108.4987,112.9181,112.8604,112.8104,109.6776,109.6049,109.5672,109.5441,109.5591,120.6557,120.6047,120.5602,120.5223,120.4789,105.9827,106.0264,106.089,106.1598,106.2306,106.3096,106.4002,106.5079,106.6829,120.2659,120.231,117.2076,117.1451,117.1178,117.1172,117.1265,117.1757,117.2832,107.0802,107.0863,107.1198,107.1749,106.7448,106.6498,106.6111,106.6057,106.6334,106.7107,120.4586,116.4975,116.4164,116.3514,106.8655,106.7409,106.6489,106.5625,106.4873,106.4449,109.1861,109.1734,109.1696,109.1944,109.2524,109.4408,112.9602,112.9038,112.8727,112.8797,112.9133,112.9896,120.347,120.3312,120.312,113.1194,113.0554,113.0147,112.9919,120.1813,120.2014,120.1389,120.0751,120.0114,119.9756,119.9463,119.917,119.8878,119.8585,119.8293,119.7954,119.7306,114.5182,113.8568,113.6438,113.5775,113.6303,113.7247,113.8825,114.0766,114.3201,114.6056,114.9414,115.424,116.1451,116.8916,117.6477,153.1043,153.0906,153.0707,153.0507,153.0307,153.0107,152.9908,152.9708,152.9509,152.9309,152.911,152.8911,152.8711,152.8512,152.8313,152.8114,152.7915,152.7716,152.7517,152.7318,152.7119,152.692,152.6721,152.6523,152.6324,152.6125,152.5927,152.5728,152.553,152.5331,152.5133,152.4934,152.4736,152.4538,152.434,152.4142,152.3944,152.3746,152.3548,152.335,152.3152,152.2954,152.2757,152.2559,152.2361,152.2164,152.1966,152.1768,152.1571,152.1374,152.1176,152.0979,152.0782,152.0585,152.0388,152.019,151.9993,151.9796,151.9599,151.9402,151.9206,151.9009,151.8812,151.8616,151.8419,151.8222,151.8026,151.7829,151.7633,151.7437,151.724,151.7044,151.6848,151.6652,151.6456,151.626,151.6063,151.5868,151.5672,151.5476,151.528,151.5084,151.4888,151.4693,151.4497,151.4302,151.4106,151.3911,151.3715,151.352,151.3325,151.3129,151.2934,151.2739,151.2544,151.2349,151.2154,151.1959,151.1764,151.1569,151.1374,151.118,151.0985,151.079,151.0596,151.0401,151.0207,151.0012,150.9818,150.9623,150.9429,150.9235,150.9041,150.8847,150.8652,150.8458,150.8264,150.807,150.7876,150.7683,150.7489,150.7295,150.7101,150.6908,150.6714,150.6521,150.6327,150.6134,150.594,150.5747,150.5554,150.536,150.5167,150.4974,150.4781,150.4588,150.4395,150.4202
109.7935,109.7249,109.6758,109.6466,109.2037,108.0839,108.3346,108.4488,108.4964,108.4996,108.466,108.3721,108.3286,112.6669,120.8241,120.7956,120.767,120.7385,120.7169,120.6979,120.6789,120.6601,120.6462,120.6323,120.6184,120.6045,120.5961,112.1698,112.1225,112.0914,112.0633,112.0499,112.0443,112.0569,111.4499,111.3889,111.3649,111.3646,111.3788,111.433,111.5612,113.5564,113.5323,113.5169,110.0142,110.3674,110.4259,110.4423,110.4224,110.3618,110.3423,120.5904,120.6067,120.607,120.6073,120.6133,120.6216,120.63,120.6384,120.6694,120.7218,120.6578,115.5199,115.5379,109.0053,108.9694,108.9417,108.9185,108.8985,108.8889,108.8805,108.8803,108.8977,108.9168,108.9538,109.0022,115.2593,115.6889,121.7188,121.7043,121.6881,108.4446,108.3752,107.9289,107.8673,106.9666,107.2667,107.3295,107.3571,107.3512,107.3224,107.2436,107.1645,108.3994,108.3693,108.3359,108.3369,108.3584,108.404,108.6819,112.9614,112.844,109.766,109.6108,109.5559,109.5229,109.5148,120.5144,120.4849,120.4405,120.396,120.3655,120.3414,120.3174,120.2452,106.1289,106.1783,106.2423,106.313,106.3877,106.4751,106.5728,106.7263,117.331,117.2196,117.1584,117.1313,117.1309,117.1407,117.1902,117.2982,120.0855,107.1296,107.1505,107.1911,106.7874,106.6989,106.6624,106.6569,106.687,106.7675,120.2465,116.4658,116.3799,106.9067,106.7688,106.679,106.6016,106.5415,113.9314,109.2744,109.2082,109.1894,109.1855,109.2103,109.2692,109.4599,112.9506,112.9228,112.8937,112.9023,112.9392,113.0259,120.3553,120.3363,113.2086,113.0907,113.0352,113.0005,112.9903,119.9685,119.9049,119.8414,119.7779,119.7145,119.6639,119.6342,119.605,119.5759,119.5514,119.5515,119.5516,119.5302,113.7526,113.4063,113.2952,113.2879,113.3554,113.4889,113.6588,113.8802,114.1327,114.45,114.8259,115.435,116.1723,116.919,117.6755,153.1271,153.1113,153.0913,153.0713,153.0513,153.0313,153.0114,152.9914,152.9715,152.9515,152.9316,152.9116,152.8917,152.8717,152.8518,152.8319,152.812,152.7921,152.7722,152.7523,152.7324,152.7125,152.6926,152.6728,152.6529,152.633,152.6131,152.5933,152.5734,152.5536,152.5338,152.5139,152.4941,152.4742,152.4544,152.4346,152.4148,152.395,152.3752,152.3554,152.3356,152.3158,152.2961,152.2763,152.2565,152.2367,152.217,152.1972,152.1775,152.1577,152.138,152.1183,152.0985,152.0788,152.0591,152.0394,152.0197,152,151.9803,151.9606,151.9409,151.9212,151.9015,151.8818,151.8622,151.8425,151.8229,151.8032,151.7836,151.7639,151.7443,151.7247,151.705,151.6854,151.6658,151.6462,151.6266,151.607,151.5874,151.5678,151.5482,151.5286,151.509,151.4895,151.4699,151.4503,151.4308,151.4112,151.3917,151.3721,151.3526,151.3331,151.3136,151.294,151.2745,151.255,151.2355,151.216,151.1965,151.177,151.1575,151.138,151.1186,151.0991,151.0796,151.0602,151.0407,151.0213,151.0018,150.9824,150.963,150.9435,150.9241,150.9047,150.8853,150.8659,150.8465,150.8271,150.8076,150.7883,150.7689,150.7495,150.7301,150.7107,150.6914,150.672,150.6527,150.6333,150.614,150.5946,150.5753,150.556,150.5367,150.5173,150.498,150.4787,150.4594,150.4401
109.8316,109.7279,109.6755,109.6467,109.2311,108.1956,108.4902,108.5699,108.595,108.5831,108.5301,108.4342,108.4342,112.6014,112.68,120.5056,120.4867,120.4677,120.4488,120.4298,120.4109,120.396,120.3821,120.3805,120.3932,120.4073,120.4215,120.3554,112.126,112.0917,112.0608,112.0464,112.0375,112.0474,111.4722,111.409,111.3842,111.3829,111.3968,111.4489,111.5711,113.5818,113.555,110.0691,110.4234,110.5048,110.5299,110.5247,110.4749,110.4231,114.9757,120.4461,120.4464,120.4467,120.447,120.4473,120.4476,120.4479,120.4482,120.4485,120.4488,120.4741,115.5319,115.538,115.5591,108.9839,108.9508,108.9252,108.9035,108.8849,108.8757,108.8677,108.8708,108.888,108.9098,108.9473,109.0007,115.7135,121.7371,121.7209,121.7048,121.6885,108.3895,107.9713,107.8991,107.0858,107.3465,107.4017,107.4213,107.4117,107.3763,107.2953,107.256,108.4411,108.3924,108.3626,108.3644,108.3897,108.4378,117.5489,112.9028,112.8287,109.6214,109.5472,109.508,109.4852,109.5034,120.3654,120.321,120.2767,120.2343,120.2091,120.1851,120.1611,120.1371,120.1011,106.2329,106.2692,106.3267,106.3952,106.4678,106.5502,106.6434,106.7721,106.9973,117.1707,117.1448,117.1447,117.1549,117.2047,117.3132,119.9582,119.9017,107.1913,107.2238,106.83,106.748,106.7129,106.7084,106.7407,106.8243,120.0588,116.4372,107.0165,106.8251,106.7151,106.6453,106.615,113.9871,113.9951,109.2879,109.2231,109.2053,109.2016,109.2262,109.2859,111.7276,112.0375,112.9417,112.9151,112.925,112.9652,113.0623,119.9563,119.9079,113.1503,113.0676,113.0212,112.992,119.5065,119.6236,119.5763,119.5291,119.4739,119.4192,119.3584,119.3356,119.3357,119.3358,119.3359,119.3361,119.3362,113.9437,113.2461,113.0312,112.9652,113.0138,113.1038,113.2599,113.4518,113.6889,113.9666,114.2957,114.7546,115.4617,116.1994,116.9465,117.7033,153.1477,153.1319,153.1119,153.0919,153.0719,153.0519,153.032,153.012,152.9921,152.9721,152.9521,152.9322,152.9123,152.8923,152.8724,152.8525,152.8326,152.8126,152.7927,152.7728,152.7529,152.733,152.7131,152.6933,152.6734,152.6535,152.6336,152.6138,152.5939,152.5741,152.5542,152.5344,152.5145,152.4947,152.4749,152.455,152.4352,152.4154,152.3956,152.3758,152.356,152.3362,152.3165,152.2967,152.2769,152.2571,152.2374,152.2176,152.1978,152.1781,152.1583,152.1386,152.1189,152.0992,152.0794,152.0597,152.04,152.0203,152.0006,151.9809,151.9612,151.9415,151.9218,151.9021,151.8825,151.8628,151.8431,151.8235,151.8038,151.7842,151.7645,151.7449,151.7253,151.7056,151.686,151.6664,151.6468,151.6272,151.6076,151.588,151.5684,151.5488,151.5292,151.5097,151.4901,151.4705,151.451,151.4314,151.4118,151.3923,151.3728,151.3532,151.3337,151.3142,151.2946,151.2751,151.2556,151.2361,151.2166,151.1971,151.1776,151.1581,151.1387,151.1192,151.0997,151.0802,151.0608,151.0413,151.0219,151.0024,150.983,150.9636,150.9441,150.9247,150.9053,150.8859,150.8665,150.847,150.8277,150.8083,150.7889,150.7695,150.7501,150.7307,150.7114,150.692,150.6726,150.6533,150.6339,150.6146,150.5952,150.5759,150.5566,150.5372,150.5179,150.4986,150.4793,150.46
110.6467,109.7317,109.6768,109.6465,108.288,108.4757,108.6044,108.653,108.6616,108.6433,108.5804,108.5037,112.5003,112.5396,112.6035,120.1025,120.2195,120.2007,120.1808,120.16,120.1497,120.1638,120.1905,120.2132,120.2273,120.2414,120.2555,120.2393,112.1299,112.092,112.0609,112.043,112.0316,112.038,111.4944,111.4291,111.4035,111.4011,111.4143,111.4648,111.582,113.6081,110.1807,110.4649,110.5808,110.6165,110.6201,110.5868,110.5252,110.5237,114.9454,115.0309,120.2866,120.2869,120.2872,120.2875,120.2878,120.2881,120.2884,120.2886,120.2768,120.2673,120.2418,115.5456,115.558,115.5809,108.9669,108.9354,108.9107,108.8891,108.8717,108.8626,108.855,108.8613,108.8783,108.9034,108.9408,108.9998,121.5747,121.7278,121.715,121.7002,108.4086,108.0162,107.204,107.2722,107.424,107.4729,107.4846,107.4707,107.4287,107.3489,107.3533,108.465,108.4155,108.3899,108.3922,108.421,108.4738,117.4711,112.871,112.8191,109.5553,109.4972,109.464,109.4572,120.2355,120.2018,120.1575,120.1133,120.0771,120.0531,120.0291,120.0052,119.9832,119.9633,119.9433,119.8791,106.3633,106.4134,106.4782,106.5489,106.6264,106.7167,106.8227,106.9924,117.1558,117.1585,117.169,117.2191,117.3282,119.8173,119.8166,119.7881,107.2787,106.8727,106.7972,106.7644,106.7597,106.7944,106.8812,119.8509,116.4133,106.9077,106.7832,106.7039,113.9706,113.9884,114.0414,114.0477,109.3015,109.238,109.2211,109.2175,109.2425,109.3027,111.8366,112.0045,112.9607,112.937,112.9478,112.9911,113.0986,119.4431,119.1752,113.1241,113.0543,113.0128,112.9962,119.003,118.9789,118.9754,118.9719,118.9685,118.965,118.9647,119.0142,119.0549,119.0854,119.1159,119.1214,119.1002,113.143,112.7962,112.6863,112.6751,112.7419,112.8705,113.0384,113.2538,113.5035,113.8127,114.1737,114.7598,115.4885,116.2265,116.974,117.7311,153.1683,153.1525,153.1325,153.1125,153.0925,153.0726,153.0526,153.0326,153.0126,152.9927,152.9727,152.9528,152.9328,152.9129,152.8929,152.873,152.8531,152.8332,152.8133,152.7934,152.7735,152.7535,152.7336,152.7138,152.6939,152.674,152.6541,152.6343,152.6144,152.5945,152.5747,152.5548,152.535,152.5152,152.4953,152.4755,152.4557,152.4359,152.416,152.3962,152.3764,152.3566,152.3369,152.3171,152.2973,152.2775,152.2578,152.238,152.2182,152.1985,152.1787,152.159,152.1392,152.1195,152.0998,152.08,152.0603,152.0406,152.0209,152.0012,151.9815,151.9618,151.9421,151.9225,151.9028,151.8831,151.8634,151.8438,151.8241,151.8045,151.7848,151.7652,151.7455,151.7259,151.7063,151.6866,151.667,151.6474,151.6278,151.6082,151.5886,151.569,151.5494,151.5298,151.5103,151.4907,151.4711,151.4516,151.432,151.4125,151.3929,151.3734,151.3538,151.3343,151.3148,151.2953,151.2757,151.2562,151.2367,151.2172,151.1977,151.1782,151.1588,151.1393,151.1198,151.1003,151.0809,151.0614,151.0419,151.0225,151.0031,150.9836,150.9642,150.9447,150.9253,150.9059,150.8865,150.8671,150.8477,150.8283,150.8089,150.7895,150.7701,150.7507,150.7313,150.712,150.6926,150.6732,150.6539,150.6345,150.6152,150.5959,150.5765,150.5572,150.5379,150.5185,150.4992,150.4799
110.6517,109.7375,109.6796,109.6459,108.3615,108.6025,108.6795,108.716,108.7183,108.692,108.6173,108.5886,112.4652,112.4994,112.5408,112.6055,119.922,119.9211,119.9005,119.8799,119.8787,119.9052,119.9317,119.9582,119.9847,120.0112,120.0378,120.0597,112.1337,112.0925,112.0612,112.0396,112.0261,112.0301,111.5166,111.4492,111.4228,111.4194,111.432,111.4807,111.5929,113.6296,110.2591,110.6371,110.688,110.7059,110.6926,110.6341,110.5996,114.8456,114.9043,114.9762,115.0577,120.1118,120.1278,120.1281,120.1284,120.1287,120.129,120.1242,120.1124,120.1006,120.0889,120.015,115.5619,115.5854,115.6123,108.9519,108.9204,108.8963,108.8746,108.8582,108.8494,108.8424,108.8518,108.8685,108.8969,108.9342,120.6097,120.7123,120.715,120.7158,108.4361,108.0612,107.2717,107.396,107.4993,107.542,107.5479,107.5285,107.4779,107.4042,108.5417,108.4827,108.4363,108.4173,108.4203,108.4524,108.5139,113.4098,112.8508,109.5699,109.4901,109.449,109.427,120.0278,120.0828,120.0386,119.9945,119.9504,119.9214,119.8975,119.8758,119.8558,119.8359,119.816,119.7961,119.7761,119.7469,106.4669,106.5031,106.5623,106.6304,106.7048,106.79,106.8865,107.036,117.168,117.1836,117.2337,117.3432,119.6481,119.6477,119.6473,119.627,106.9154,106.8464,106.8159,106.8121,106.8482,106.9381,119.4336,106.9928,106.862,106.7716,116.1164,114.0445,114.035,114.081,114.0884,109.3165,109.2529,109.2371,109.2335,109.2584,109.3196,111.9597,112.048,112.9758,112.9586,112.9713,113.0171,113.135,118.5942,113.222,113.0942,113.041,113.0093,118.3537,118.56,118.5565,118.5531,118.5496,118.5462,118.5448,118.581,118.632,118.6831,118.7291,118.7619,118.7923,113.3639,112.6419,112.4251,112.3589,112.404,112.491,112.644,112.8301,113.0646,113.3366,113.6593,114.0956,114.7863,115.5153,116.2536,117.0014,117.7589,153.189,153.1731,153.1531,153.1331,153.1131,153.0932,153.0732,153.0532,153.0332,153.0133,152.9933,152.9734,152.9534,152.9334,152.9135,152.8936,152.8736,152.8537,152.8338,152.8139,152.794,152.7741,152.7542,152.7343,152.7144,152.6945,152.6746,152.6548,152.6349,152.615,152.5952,152.5753,152.5555,152.5356,152.5158,152.496,152.4761,152.4563,152.4365,152.4167,152.3969,152.3771,152.3573,152.3375,152.3177,152.2979,152.2781,152.2584,152.2386,152.2188,152.1991,152.1793,152.1596,152.1399,152.1201,152.1004,152.0807,152.0609,152.0412,152.0215,152.0018,151.9821,151.9624,151.9427,151.9231,151.9034,151.8837,151.864,151.8444,151.8247,151.8051,151.7854,151.7658,151.7462,151.7265,151.7069,151.6873,151.6676,151.648,151.6284,151.6088,151.5892,151.5696,151.55,151.5305,151.5109,151.4913,151.4717,151.4522,151.4326,151.4131,151.3935,151.374,151.3545,151.3349,151.3154,151.2959,151.2764,151.2569,151.2374,151.2178,151.1983,151.1789,151.1594,151.1399,151.1204,151.101,151.0815,151.062,151.0426,151.0231,151.0037,150.9842,150.9648,150.9454,150.9259,150.9065,150.8871,150.8677,150.8483,150.8289,150.8095,150.7901,150.7707,150.7513,150.732,150.7126,150.6932,150.6739,150.6545,150.6351,150.6158,150.5965,150.5771,150.5578,150.5385,150.5191,150.4998
110.3745,109.7473,109.6824,109.6453,108.482,108.6895,108.7536,108.7788,108.774,108.7373,108.6649,108.694,112.4392,112.4597,112.4932,112.5436,112.616,119.6421,119.6215,119.6092,119.6213,119.6476,119.674,119.7004,119.7268,119.7532,119.7796,119.8061,112.1407,112.0933,112.0615,112.0361,112.0222,112.0212,111.539,111.4694,111.4422,111.4381,111.4496,111.4965,111.5966,110.3471,110.6582,110.737,110.7653,110.7684,110.737,110.6898,110.7214,114.8282,114.8825,114.9393,115.008,115.0951,119.953,119.9691,119.9694,119.9697,119.97,119.9602,119.9485,119.9367,119.925,119.9133,115.604,115.5966,115.6219,115.6467,108.9369,108.9056,108.8818,108.8601,108.8449,108.8363,108.8301,108.8423,108.8588,108.8904,108.9315,120.2376,120.2987,120.3537,120.3507,108.1063,107.3324,107.4904,107.5746,107.6084,107.6071,107.586,107.5233,107.464,108.5725,108.4987,108.4538,108.4405,108.4457,108.4821,108.5567,112.9327,112.8511,109.501,109.4383,109.406,109.4015,119.9187,119.8943,119.8639,119.8305,119.7912,119.7685,119.749,119.7322,119.7154,119.6985,119.6817,119.6649,119.6482,119.6314,119.6146,119.5605,106.5986,106.6485,106.7129,106.7843,106.8648,106.9596,107.0822,107.317,117.2482,117.3582,119.4476,119.4472,119.4469,119.4068,106.9621,106.8963,106.8675,106.8647,106.902,106.9951,107.0901,106.9435,106.8439,116.1214,116.0865,114.1003,114.0748,114.1203,114.1291,109.3316,109.2677,109.2526,109.2494,109.2745,109.3364,112.1063,112.1419,112.9851,112.9812,112.9942,113.0431,113.1715,118.071,113.1574,113.0735,113.028,113.011,118.0305,118.088,118.0908,118.0936,118.0964,118.1159,118.1527,118.2016,118.2523,118.303,118.3538,118.4021,118.4402,112.5455,112.1926,112.0839,112.069,112.135,112.2589,112.4249,112.6342,112.8812,113.1825,113.5312,114.0926,114.8127,115.5421,116.2808,117.0289,117.7868,153.2096,153.1938,153.1738,153.1538,153.1338,153.1138,153.0938,153.0738,153.0538,153.0339,153.0139,152.9939,152.974,152.954,152.9341,152.9141,152.8942,152.8743,152.8543,152.8344,152.8145,152.7946,152.7747,152.7548,152.7349,152.715,152.6951,152.6752,152.6554,152.6355,152.6157,152.5958,152.5759,152.5561,152.5362,152.5164,152.4966,152.4767,152.4569,152.4371,152.4173,152.3975,152.3777,152.3579,152.3381,152.3183,152.2985,152.2788,152.259,152.2392,152.2195,152.1997,152.18,152.1602,152.1405,152.1207,152.101,152.0813,152.0616,152.0419,152.0222,152.0025,151.9828,151.9631,151.9434,151.9237,151.904,151.8843,151.8647,151.845,151.8253,151.8057,151.786,151.7664,151.7468,151.7271,151.7075,151.6879,151.6683,151.6487,151.629,151.6095,151.5898,151.5703,151.5507,151.5311,151.5115,151.4919,151.4724,151.4528,151.4333,151.4137,151.3942,151.3746,151.3551,151.3356,151.316,151.2965,151.277,151.2575,151.2379,151.2185,151.199,151.1795,151.16,151.1405,151.121,151.1016,151.0821,151.0626,151.0432,151.0237,151.0043,150.9848,150.9654,150.946,150.9266,150.9071,150.8877,150.8683,150.8489,150.8295,150.8101,150.7907,150.7713,150.752,150.7326,150.7132,150.6938,150.6745,150.6551,150.6358,150.6164,150.5971,150.5777,150.5584,150.5391,150.5198
110.3425,109.7596,109.6862,108.5534,108.6087,108.7709,108.8249,108.84,108.8288,108.7781,108.7193,112.4188,112.4237,112.4256,112.454,112.4891,112.5481,112.6304,119.3438,119.3413,119.3649,119.3912,119.4174,119.4451,119.4784,119.5201,119.5618,119.6035,119.5587,112.0963,112.0618,112.0327,112.0188,112.0136,111.5621,111.4896,111.4615,111.4563,111.467,111.5124,111.549,110.6364,110.7643,110.8171,110.8343,110.8237,110.7745,110.7618,114.8061,114.8233,114.8665,114.918,114.9775,115.0453,115.1325,115.3045,119.8108,119.8111,119.8084,119.7967,119.785,119.7733,119.7616,119.7499,119.7382,119.6613,115.638,115.7509,115.7211,108.9223,108.8906,108.8673,108.8457,108.8317,108.8232,108.8182,108.8328,108.8494,108.884,108.9305,119.9228,119.9374,119.952,108.1514,107.4029,107.5755,107.6467,107.673,107.67,107.6413,107.5672,107.5299,108.6024,108.5152,108.4718,108.4638,108.4712,108.5111,108.5996,112.926,109.5345,109.4328,109.3902,109.37,119.6765,119.7241,119.6979,119.6717,119.6658,119.6549,119.6406,119.6244,119.6076,119.5908,119.5741,119.5573,119.5405,119.5238,119.507,119.4903,119.4735,119.4511,106.7073,106.7397,106.7967,106.8662,106.943,107.0332,107.1384,107.3117,117.3732,119.2478,119.2474,119.247,119.207,107.0088,106.9459,106.9191,106.9186,106.9571,107.0522,107.0263,106.919,106.8867,116.1222,116.0465,115.9825,114.1142,114.1601,114.1699,109.3466,109.2826,109.2685,109.2654,109.2907,109.3532,112.686,112.2675,112.5147,113.0038,113.0177,113.0691,113.2079,117.4494,113.1278,113.0606,113.0264,113.0215,117.623,117.6424,117.6618,117.6812,117.7007,117.745,117.7913,117.8377,117.884,117.9305,117.977,118.0263,112.7953,112.0442,111.8255,111.7561,111.8008,111.8868,112.0348,112.2161,112.447,112.712,113.0308,113.4516,114.1187,114.8393,115.5689,116.3079,117.0564,117.8147,153.2303,153.2144,153.1944,153.1744,153.1544,153.1344,153.1144,153.0944,153.0744,153.0545,153.0345,153.0145,152.9946,152.9746,152.9547,152.9347,152.9148,152.8948,152.8749,152.855,152.8351,152.8152,152.7952,152.7753,152.7554,152.7355,152.7157,152.6958,152.6759,152.656,152.6361,152.6163,152.5964,152.5766,152.5567,152.5369,152.517,152.4972,152.4774,152.4576,152.4377,152.4179,152.3981,152.3783,152.3585,152.3387,152.3189,152.2992,152.2794,152.2596,152.2399,152.2201,152.2003,152.1806,152.1608,152.1411,152.1214,152.1016,152.0819,152.0622,152.0425,152.0228,152.0031,151.9834,151.9637,151.944,151.9243,151.9046,151.8849,151.8653,151.8456,151.826,151.8063,151.7867,151.767,151.7474,151.7278,151.7081,151.6885,151.6689,151.6493,151.6297,151.6101,151.5905,151.5709,151.5513,151.5317,151.5121,151.4926,151.473,151.4534,151.4339,151.4143,151.3948,151.3752,151.3557,151.3362,151.3166,151.2971,151.2776,151.2581,151.2386,151.2191,151.1996,151.1801,151.1606,151.1411,151.1217,151.1022,151.0827,151.0632,151.0438,151.0243,151.0049,150.9855,150.966,150.9466,150.9272,150.9077,150.8883,150.8689,150.8495,150.8301,150.8107,150.7913,150.7719,150.7526,150.7332,150.7138,150.6944,150.6751,150.6557,150.6364,150.617,150.5977,150.5783,150.559,150.5397
110.3139,118.3308,109.6942,108.6047,108.752,108.8479,108.8926,108.8977,108.8789,108.811,108.7816,112.4109,112.4084,112.4109,112.4162,112.4509,112.4872,112.5526,118.9973,119.0861,119.1221,119.1635,119.2049,119.2464,119.2879,119.3294,119.371,119.4126,119.4202,112.1003,112.0626,112.0311,112.0154,112.0065,111.5852,111.5097,111.4808,111.4748,111.4849,111.524,110.5192,110.7796,110.8638,110.8941,110.8981,110.8703,110.822,110.8541,119.7525,119.6886,114.8664,114.9052,114.9584,115.0212,115.0859,115.1699,115.2942,119.653,119.6453,119.6337,119.622,119.6103,119.5986,119.5869,119.5753,119.5636,119.5519,115.8188,115.7423,115.7122,108.9076,108.8757,108.8529,108.8312,108.8185,108.81,108.8073,108.8235,108.8413,108.8773,108.9311,119.7384,119.7529,108.1965,107.477,107.6577,107.7184,107.7408,107.7314,107.6952,107.6177,107.598,108.6183,108.5316,108.4912,108.487,108.4971,108.5401,108.6425,113.393,109.4468,109.3794,109.3479,109.3466,119.5717,119.5482,119.5378,119.5389,119.5377,119.5246,119.5115,119.4983,119.4833,119.4666,119.4498,119.4331,119.4164,119.3997,119.3829,119.3662,119.3495,119.3305,119.3,119.2272,106.8368,106.8839,106.9489,107.0228,107.1066,107.2061,107.3517,119.0487,119.0483,119.0479,119.0081,107.0531,106.9955,106.9708,106.9708,107.011,107.0807,106.9962,106.9478,116.1865,116.0898,116.0139,115.9505,114.1539,114.1999,114.2066,109.3617,109.2975,109.2842,109.2815,109.3068,109.37,112.7932,112.4206,112.489,113.0264,113.0411,113.0951,113.2444,113.2403,113.0962,113.0475,113.0263,117.1388,117.2305,117.2498,117.2691,117.2941,117.3401,117.3861,117.4321,117.4782,117.5243,117.5705,117.6167,117.6593,111.9559,111.5994,111.4879,111.4693,111.5339,111.6538,111.8174,112.0214,112.2633,112.5593,112.8963,113.433,114.1449,114.8657,115.5957,116.3351,117.0839,117.8425,153.2529,153.2351,153.2151,153.1951,153.175,153.155,153.1351,153.1151,153.0951,153.0751,153.0551,153.0351,153.0152,152.9952,152.9752,152.9553,152.9353,152.9154,152.8955,152.8755,152.8556,152.8357,152.8158,152.7959,152.776,152.7561,152.7362,152.7163,152.6964,152.6765,152.6566,152.6368,152.6169,152.597,152.5772,152.5573,152.5375,152.5177,152.4978,152.478,152.4582,152.4384,152.4185,152.3988,152.3789,152.3591,152.3394,152.3196,152.2998,152.28,152.2602,152.2405,152.2207,152.201,152.1812,152.1615,152.1417,152.122,152.1023,152.0825,152.0628,152.0431,152.0234,152.0037,151.984,151.9643,151.9446,151.9249,151.9052,151.8856,151.8659,151.8462,151.8266,151.8069,151.7873,151.7677,151.748,151.7284,151.7087,151.6891,151.6695,151.6499,151.6303,151.6107,151.5911,151.5715,151.5519,151.5323,151.5128,151.4932,151.4736,151.454,151.4345,151.4149,151.3954,151.3759,151.3563,151.3368,151.3172,151.2977,151.2782,151.2587,151.2392,151.2197,151.2002,151.1807,151.1612,151.1417,151.1223,151.1028,151.0833,151.0639,151.0444,151.025,151.0055,150.9861,150.9666,150.9472,150.9278,150.9084,150.8889,150.8695,150.8501,150.8307,150.8113,150.7919,150.7726,150.7532,150.7338,150.7144,150.6951,150.6757,150.6563,150.637,150.6176,150.5983,150.579,150.5596
110.2926,118.4543,109.715,108.6688,108.8462,108.9234,108.9554,108.9561,108.9265,108.8546,108.8528,112.4055,112.3972,112.3975,112.4005,112.4128,112.4478,112.4913,112.5572,118.8215,118.8959,118.9707,119.0153,119.0567,119.098,119.1394,119.1809,119.2223,119.2621,112.106,112.0634,112.0313,112.0119,112.0007,111.6083,111.5299,111.5004,111.4934,111.5027,111.5189,110.6219,110.8893,110.9466,110.9634,110.9549,110.9069,110.8814,119.5806,119.5962,119.5848,119.5453,114.9163,114.9527,115.0045,115.0649,115.1284,115.2073,115.3015,119.4827,119.471,119.4594,119.4478,119.4361,119.4245,119.4128,119.4012,119.3896,115.8578,115.7634,115.7283,115.7239,108.893,108.8608,108.8384,108.8168,108.8054,108.7976,108.7983,108.8146,108.8348,108.8708,119.4923,119.5546,119.4701,107.5514,107.7373,107.7852,107.7979,107.787,107.7492,107.6717,107.674,108.6234,108.5481,108.512,108.5103,108.5252,108.5691,108.6855,109.5146,109.3773,109.3314,109.313,119.3647,119.4102,119.4109,119.4123,119.4136,119.4076,119.3945,119.3814,119.3683,119.3552,119.3409,119.3259,119.3092,119.2925,119.2758,119.2591,119.2425,119.2258,119.2018,119.1709,119.1172,117.3054,106.9685,106.9763,107.0339,107.1057,107.1851,107.2778,107.4011,118.8531,118.8495,118.8097,107.0904,107.0352,107.015,107.0175,107.0552,107.0884,107.0114,107.4596,117.611,116.068,115.9846,115.9139,114.1943,114.2384,114.2474,109.3768,109.3132,109.2998,109.2976,109.3231,109.3868,112.8155,112.6559,112.552,113.048,113.0651,113.1211,116.6151,113.1717,113.0821,113.0407,113.0336,116.8468,116.8606,116.8744,116.8891,116.9231,116.9663,117.0096,117.0528,117.0962,117.1395,117.1829,117.2263,112.2565,111.4527,111.2322,111.1619,111.204,111.2875,111.4321,111.6115,111.8362,112.0954,112.4091,112.8149,113.4589,114.1711,114.8922,115.6226,116.3623,117.1115,117.8704,153.2737,153.2557,153.2357,153.2157,153.1957,153.1757,153.1557,153.1357,153.1157,153.0957,153.0757,153.0557,153.0358,153.0158,152.9958,152.9759,152.9559,152.936,152.916,152.8961,152.8762,152.8562,152.8363,152.8164,152.7965,152.7766,152.7567,152.7368,152.7169,152.697,152.6771,152.6573,152.6374,152.6175,152.5977,152.5778,152.558,152.5381,152.5183,152.4985,152.4786,152.4588,152.439,152.4192,152.3994,152.3796,152.3598,152.34,152.3202,152.3004,152.2806,152.2609,152.2411,152.2213,152.2016,152.1819,152.1621,152.1424,152.1226,152.1029,152.0832,152.0634,152.0437,152.024,152.0043,151.9846,151.9649,151.9452,151.9256,151.9059,151.8862,151.8665,151.8469,151.8272,151.8076,151.7879,151.7683,151.7486,151.729,151.7094,151.6897,151.6701,151.6505,151.6309,151.6113,151.5917,151.5721,151.5525,151.5329,151.5134,151.4938,151.4742,151.4547,151.4351,151.4156,151.396,151.3765,151.3569,151.3374,151.3179,151.2984,151.2788,151.2593,151.2398,151.2203,151.2008,151.1813,151.1618,151.1423,151.1229,151.1034,151.0839,151.0645,151.045,151.0256,151.0061,150.9867,150.9673,150.9478,150.9284,150.909,150.8896,150.8701,150.8507,150.8313,150.8119,150.7925,150.7732,150.7538,150.7344,150.715,150.6957,150.6763,150.6569,150.6376,150.6183,150.5989,150.5796
110.2882,118.4894,118.7002,108.7423,108.9322,108.9965,109.019,109.011,108.9713,108.9044,109.4764,112.4026,112.3924,112.3855,112.3871,112.3901,112.4096,112.4446,112.4958,112.5698,118.5835,118.638,118.7126,118.7873,118.862,118.9369,118.9913,119.0327,119.074,112.1146,112.0642,112.0319,112.0089,111.9964,111.6315,111.5501,111.5203,111.5121,111.5204,110.6498,110.9013,110.9904,111.0222,111.0279,111.0021,110.9521,110.9572,119.4388,119.4386,119.4273,119.416,119.3957,114.9784,115.0021,115.0513,115.1087,115.1717,115.2448,115.3339,119.3007,119.297,119.2854,119.2738,119.2623,119.2507,119.2392,119.2276,115.9007,115.7846,115.7464,115.7394,115.738,108.8784,108.8461,108.824,108.8034,108.7936,108.7866,108.7895,108.8052,108.8282,108.8649,119.3487,119.2784,107.6343,107.7981,107.8399,107.8483,107.8336,107.7909,107.7264,108.692,108.6285,108.5646,108.5331,108.5336,108.5542,108.5982,109.4435,109.3921,109.3204,109.2895,109.2918,119.272,119.2846,119.2859,119.2872,119.2885,119.2778,119.2647,119.2516,119.2386,119.2255,119.2124,119.1994,119.1852,119.1689,119.1522,119.1356,119.1189,119.1012,119.0729,119.042,118.9885,117.3179,117.2646,117.2394,107.0841,107.1292,107.1912,107.2659,107.3513,107.4629,118.6529,118.5338,107.1273,107.0719,107.0509,107.0526,107.0897,107.0935,107.4591,117.4713,117.3,116.0545,115.9554,115.8815,114.2342,114.2784,114.2882,109.3918,109.3288,109.3153,109.3137,109.3392,109.4037,112.9415,112.8163,112.6565,113.0694,113.0897,113.1472,116.276,113.1502,113.08,113.0434,116.3968,116.5077,116.5214,116.5366,116.5532,116.5697,116.6029,116.637,116.6711,116.7052,116.7458,116.7889,116.832,111.3672,111.0126,110.8982,110.876,110.9399,111.0552,111.2163,111.4152,111.6543,111.9428,112.2744,112.7861,113.4847,114.1972,114.9187,115.6494,116.3895,117.139,117.8983,153.2944,153.2764,153.2564,153.2364,153.2163,153.1963,153.1763,153.1563,153.1363,153.1163,153.0963,153.0763,153.0564,153.0364,153.0164,152.9965,152.9765,152.9565,152.9366,152.9167,152.8967,152.8768,152.8569,152.8369,152.817,152.7971,152.7772,152.7573,152.7374,152.7175,152.6976,152.6778,152.6579,152.638,152.6182,152.5983,152.5784,152.5586,152.5388,152.5189,152.4991,152.4792,152.4594,152.4396,152.4198,152.4,152.3802,152.3604,152.3406,152.3208,152.301,152.2813,152.2615,152.2417,152.222,152.2022,152.1825,152.1627,152.143,152.1232,152.1035,152.0838,152.0641,152.0444,152.0246,152.0049,151.9852,151.9655,151.9459,151.9262,151.9065,151.8868,151.8672,151.8475,151.8278,151.8082,151.7885,151.7689,151.7493,151.7296,151.71,151.6904,151.6707,151.6511,151.6315,151.6119,151.5923,151.5727,151.5531,151.5336,151.514,151.4944,151.4748,151.4553,151.4357,151.4162,151.3966,151.3771,151.3575,151.338,151.3185,151.299,151.2794,151.2599,151.2404,151.2209,151.2014,151.1819,151.1625,151.143,151.1235,151.104,151.0845,151.0651,151.0456,151.0262,151.0067,150.9873,150.9679,150.9484,150.929,150.9096,150.8902,150.8708,150.8513,150.832,150.8126,150.7932,150.7738,150.7544,150.735,150.7156,150.6963,150.6769,150.6576,150.6382,150.6189,150.5995
110.2841,110.4139,118.6774,108.83,109.0138,109.0659,109.0773,109.0652,109.0107,108.9599,109.4934,112.4017,112.3896,112.3795,112.3738,112.3767,112.3798,112.4065,112.4415,112.5003,112.5847,118.3422,118.3917,118.4556,118.5299,118.6044,118.6789,118.7535,118.8282,118.7549,112.0681,112.0331,112.0077,111.9948,111.6546,111.5703,111.5399,111.5307,111.5326,110.7297,111.015,111.0747,111.0932,111.0864,111.041,111.0051,113.8159,119.2693,119.2815,119.2702,119.2589,119.2476,119.2367,119.1745,115.0566,115.1002,115.1525,115.2155,115.283,115.372,119.1187,119.1233,119.1118,119.1003,119.0887,119.0772,119.0657,119.0114,115.8061,115.7675,115.7534,115.7563,115.4738,108.8638,108.8319,108.8112,108.7914,108.7821,108.7753,108.7807,108.7953,108.8217,108.8663,107.6895,107.7264,107.8557,107.8931,107.8983,107.8804,107.8278,107.7844,108.7229,108.6336,108.581,108.5553,108.5571,108.5832,108.6304,109.3862,109.3256,109.2741,109.2571,119.1201,119.1585,119.1598,119.1611,119.1624,119.1613,119.1482,119.1352,119.1222,119.1091,119.0961,119.0831,119.07,119.057,119.0438,119.0289,119.0122,118.9956,118.975,118.9442,118.9134,118.86,117.3304,117.2779,117.253,117.2549,117.2615,107.2318,107.2819,107.35,107.4348,107.5425,118.2731,107.1646,107.1088,107.0868,107.0879,107.1239,107.1308,117.0962,117.076,116.9095,116.7481,115.9293,115.8521,114.2745,114.3179,114.3289,109.4069,109.3444,109.3309,109.3298,109.3554,109.4205,113.165,113.1352,112.8174,113.0933,113.1153,113.1732,113.2982,113.1233,113.0853,113.0795,116.157,116.1706,116.1863,116.2028,116.2192,116.2356,116.2524,116.2862,116.3201,116.354,116.388,116.4219,111.7228,110.8674,110.6452,110.5757,110.6135,110.6928,110.8359,111.0103,111.232,111.484,111.7943,112.1853,112.8066,113.5106,114.2234,114.9453,115.6763,116.4167,117.1666,117.9262,153.315,153.2971,153.277,153.257,153.237,153.217,153.1969,153.177,153.1569,153.1369,153.1169,153.097,153.077,153.057,153.037,153.017,152.9971,152.9771,152.9572,152.9372,152.9173,152.8973,152.8774,152.8575,152.8376,152.8177,152.7977,152.7778,152.7579,152.7381,152.7182,152.6983,152.6784,152.6585,152.6387,152.6188,152.5989,152.5791,152.5592,152.5394,152.5195,152.4997,152.4799,152.4601,152.4402,152.4204,152.4006,152.3808,152.361,152.3412,152.3215,152.3017,152.2819,152.2621,152.2424,152.2226,152.2028,152.1831,152.1633,152.1436,152.1239,152.1041,152.0844,152.0647,152.045,152.0253,152.0056,151.9859,151.9662,151.9465,151.9268,151.9071,151.8874,151.8678,151.8481,151.8284,151.8088,151.7891,151.7695,151.7499,151.7302,151.7106,151.691,151.6714,151.6517,151.6321,151.6125,151.5929,151.5733,151.5538,151.5342,151.5146,151.495,151.4755,151.4559,151.4363,151.4168,151.3972,151.3777,151.3582,151.3386,151.3191,151.2996,151.2801,151.2606,151.241,151.2215,151.202,151.1826,151.1631,151.1436,151.1241,151.1046,151.0852,151.0657,151.0462,151.0268,151.0074,150.9879,150.9685,150.949,150.9296,150.9102,150.8908,150.8714,150.852,150.8326,150.8132,150.7938,150.7744,150.755,150.7356,150.7163,150.6969,150.6775,150.6582,150.6388,150.6195
110.2305,110.3828,108.8753,108.9851,109.0804,109.1192,109.1233,109.1052,109.0474,109.0246,109.5104,112.4065,112.3883,112.3768,112.3668,112.3633,112.3663,112.371,112.4034,112.4395,112.5049,118.0096,118.1019,118.1512,118.2005,118.2737,118.3478,118.422,118.4963,118.5376,112.0769,112.0368,112.0071,111.9939,111.6778,111.5907,111.5597,111.5494,110.7915,111.0213,111.1076,111.1403,111.15,111.1344,111.0819,111.071,113.8323,119.1059,119.1248,119.1135,119.1044,119.096,119.0876,119.0793,119.0478,115.115,115.1493,115.199,115.2594,115.3252,115.4127,115.5749,118.9502,118.9387,118.9272,118.9156,118.9042,118.8696,115.8307,115.7887,115.7675,115.7683,115.4717,115.4111,108.8512,108.8205,108.7992,108.7796,108.7707,108.7643,108.7718,108.785,108.8152,107.749,107.7985,107.9129,107.9468,107.9462,107.9252,107.8651,107.8422,108.7549,108.6444,108.5975,108.5784,108.5811,108.6122,108.6703,109.3313,109.2748,109.2419,109.2467,119.0327,119.034,119.0353,119.0366,119.0379,119.032,119.019,119.006,118.993,118.98,118.9669,118.9539,118.9409,118.9279,118.915,118.902,118.8878,118.8719,118.8465,118.8158,118.7853,118.7335,117.3429,117.2912,117.2666,117.2687,117.2859,117.3343,117.3941,107.3832,107.457,107.5391,118.0135,107.2022,107.1457,107.1228,107.1232,107.1586,107.2417,116.8529,116.6672,116.5806,116.4874,115.9116,115.823,114.3159,114.3568,114.3649,109.422,109.3601,109.3465,109.3459,109.3716,109.4373,113.1899,113.1539,113.1172,113.1167,113.141,113.1996,115.6951,113.1727,113.1132,115.775,115.8219,115.8381,115.8544,115.8708,115.8871,115.9035,115.9198,115.9376,115.9712,116.005,116.0387,116.0724,110.7829,110.432,110.3147,110.289,110.3522,110.463,110.6203,110.8162,111.052,111.3331,111.6545,112.1441,112.8321,113.5365,114.2496,114.9718,115.7032,116.4439,117.1941,117.9542,153.3357,153.3177,153.2977,153.2777,153.2576,153.2376,153.2176,153.1976,153.1776,153.1576,153.1376,153.1176,153.0976,153.0776,153.0576,153.0376,153.0177,152.9977,152.9778,152.9578,152.9379,152.9179,152.898,152.8781,152.8581,152.8382,152.8183,152.7984,152.7785,152.7586,152.7387,152.7188,152.6989,152.679,152.6591,152.6393,152.6194,152.5996,152.5797,152.5598,152.54,152.5202,152.5003,152.4805,152.4607,152.4409,152.4211,152.4012,152.3815,152.3616,152.3419,152.3221,152.3023,152.2825,152.2627,152.243,152.2232,152.2034,152.1837,152.164,152.1442,152.1245,152.1048,152.085,152.0653,152.0456,152.0259,152.0062,151.9865,151.9668,151.9471,151.9274,151.9077,151.8881,151.8684,151.8487,151.8291,151.8094,151.7898,151.7701,151.7505,151.7309,151.7112,151.6916,151.672,151.6524,151.6328,151.6132,151.5936,151.574,151.5544,151.5348,151.5152,151.4957,151.4761,151.4565,151.437,151.4174,151.3979,151.3783,151.3588,151.3393,151.3197,151.3002,151.2807,151.2612,151.2417,151.2222,151.2027,151.1832,151.1637,151.1442,151.1247,151.1053,151.0858,151.0663,151.0469,151.0274,151.008,150.9885,150.9691,150.9497,150.9302,150.9108,150.8914,150.872,150.8526,150.8332,150.8138,150.7944,150.775,150.7556,150.7362,150.7169,150.6975,150.6781,150.6588,150.6394
110.1656,110.3605,108.9283,109.0652,109.1381,109.169,109.1702,109.1434,109.0873,109.0976,109.5273,112.4262,112.3925,112.3752,112.364,112.3547,112.3529,112.3559,112.3653,112.4003,112.4419,112.5051,117.8092,117.8625,117.9116,117.9608,118.0186,118.0924,118.1663,118.2436,112.0888,112.041,112.0097,111.9929,111.7009,111.6109,111.5797,111.5666,110.8476,111.1067,111.166,111.19,111.1927,111.1668,111.1289,113.7952,113.8491,118.937,118.9724,118.964,118.9556,118.9473,118.9389,118.9306,118.9222,118.9065,115.1873,115.1995,115.248,115.3057,115.3729,115.4537,115.5757,118.7775,118.766,118.7546,118.7431,118.7247,115.8697,115.8099,115.7817,115.7789,115.4702,115.4418,115.7299,108.8404,108.809,108.7872,108.7678,108.7592,108.7534,108.7621,108.7751,107.806,107.8695,107.9705,107.998,107.9966,107.9689,107.9072,107.9025,108.7568,108.6601,108.6139,108.6014,108.6063,108.6413,108.7125,109.2796,109.2379,109.2302,118.8947,118.9084,118.9097,118.911,118.9123,118.9136,118.903,118.89,118.877,118.864,118.8511,118.8381,118.8251,118.8121,118.7992,118.7868,118.7752,118.7636,118.7483,118.7208,118.6909,118.661,118.6094,117.3559,117.3049,117.2803,117.2825,117.3006,117.3501,117.4632,118.1716,118.0193,117.8754,117.755,107.2398,107.1826,107.1588,107.1585,107.1934,107.2743,116.4327,116.3397,116.2536,116.1676,115.9511,115.7953,114.3578,114.3896,114.3986,109.4371,109.3754,109.3621,109.362,109.388,109.4542,113.2052,113.1727,113.138,113.1393,113.1667,113.2271,115.4453,115.4963,115.4956,115.5007,115.5054,115.5101,115.5244,115.5407,115.5569,115.5732,115.5894,115.6057,115.6244,115.658,115.6928,111.1941,110.2883,110.0644,109.994,110.0292,110.1063,110.2461,110.4154,110.6343,110.881,111.1862,111.5627,112.1618,112.8577,113.5624,114.2758,114.9983,115.73,116.4711,117.2217,117.9821,153.3564,153.3384,153.3184,153.2983,153.2783,153.2583,153.2382,153.2182,153.1982,153.1782,153.1582,153.1382,153.1182,153.0982,153.0782,153.0583,153.0383,153.0183,152.9984,152.9784,152.9584,152.9385,152.9185,152.8986,152.8787,152.8588,152.8388,152.8189,152.799,152.7791,152.7592,152.7393,152.7194,152.6995,152.6796,152.6598,152.6399,152.62,152.6002,152.5803,152.5605,152.5406,152.5208,152.501,152.4811,152.4613,152.4415,152.4217,152.4019,152.3821,152.3623,152.3425,152.3227,152.3029,152.2831,152.2634,152.2436,152.2238,152.2041,152.1843,152.1646,152.1449,152.1251,152.1054,152.0856,152.0659,152.0462,152.0265,152.0068,151.9871,151.9674,151.9477,151.928,151.9084,151.8887,151.869,151.8493,151.8297,151.81,151.7904,151.7708,151.7511,151.7315,151.7118,151.6922,151.6726,151.653,151.6334,151.6138,151.5942,151.5746,151.555,151.5354,151.5158,151.4963,151.4767,151.4571,151.4376,151.418,151.3985,151.3789,151.3594,151.3399,151.3203,151.3008,151.2813,151.2618,151.2423,151.2228,151.2033,151.1838,151.1643,151.1448,151.1253,151.1059,151.0864,151.0669,151.0475,151.028,151.0086,150.9891,150.9697,150.9503,150.9308,150.9114,150.892,150.8726,150.8532,150.8338,150.8144,150.795,150.7756,150.7562,150.7369,150.7175,150.6981,150.6788,150.6594
110.1188,110.1637,108.9921,109.133,109.1959,109.2197,109.2147,109.1787,109.1317,109.4579,109.5443,115.571,112.4074,112.3786,112.3623,112.3512,112.3426,112.3425,112.3455,112.3619,112.3961,112.4402,112.5036,117.5868,117.6241,117.673,117.722,117.771,117.838,117.9161,117.8924,112.0484,112.0134,111.9916,111.7241,111.6319,111.5998,111.5779,111.0581,111.1711,111.2215,111.2383,111.2332,111.1945,111.1825,113.8171,113.8667,118.7615,118.8239,118.8156,118.8073,118.7989,118.7906,118.7822,118.7739,118.7656,118.7566,118.7002,115.2579,115.301,115.3561,115.4218,115.4957,115.5976,118.6053,118.5939,118.5825,118.571,115.9088,115.831,115.798,115.7901,115.4668,115.7064,115.7834,118.4798,108.8304,108.7979,108.7754,108.7561,108.7477,108.7424,108.7519,107.8637,107.941,108.0267,108.049,108.0468,108.0124,107.954,107.9691,108.7491,108.676,108.6329,108.6245,108.6319,108.6704,108.7555,109.2613,109.2217,118.7282,118.7831,118.7844,118.7857,118.787,118.7883,118.7872,118.7743,118.7616,118.75,118.7384,118.7268,118.7152,118.7036,118.6921,118.6805,118.6689,118.6573,118.6458,118.6265,118.5966,118.5668,118.537,118.4855,117.3694,117.3209,117.2962,117.2986,117.3175,117.3667,117.481,117.9178,117.7854,117.6533,117.4456,107.278,107.2194,107.1948,107.1942,107.2281,107.307,116.0997,116.0185,115.9383,115.8583,115.7784,115.6986,114.3972,114.4174,114.4303,109.4522,109.391,109.3777,109.3784,109.4044,109.471,113.2213,113.1915,113.1592,113.1619,113.1924,113.2569,115.2105,115.2357,115.2355,115.2432,115.2479,115.2526,115.2572,115.2619,115.2666,115.2713,115.276,115.2807,115.2933,115.3154,115.355,110.2112,109.8574,109.7374,109.7082,109.7707,109.8771,110.0327,110.2248,110.4563,110.73,111.0433,111.5118,112.187,112.8833,113.5883,114.3021,115.0249,115.7569,116.4984,117.2493,118.0101,153.3772,153.3591,153.3391,153.319,153.299,153.2789,153.2589,153.2389,153.2189,153.1989,153.1788,153.1588,153.1388,153.1188,153.0988,153.0789,153.0589,153.0389,153.0189,152.999,152.979,152.9591,152.9391,152.9192,152.8992,152.8793,152.8594,152.8395,152.8195,152.7996,152.7797,152.7598,152.7399,152.72,152.7002,152.6803,152.6604,152.6405,152.6207,152.6008,152.5809,152.5611,152.5413,152.5214,152.5016,152.4818,152.4619,152.4421,152.4223,152.4025,152.3827,152.3629,152.3431,152.3233,152.3035,152.2838,152.264,152.2442,152.2245,152.2047,152.185,152.1652,152.1455,152.1257,152.106,152.0863,152.0666,152.0468,152.0271,152.0074,151.9877,151.968,151.9483,151.9287,151.909,151.8893,151.8696,151.85,151.8303,151.8107,151.791,151.7714,151.7517,151.7321,151.7125,151.6929,151.6732,151.6536,151.634,151.6144,151.5948,151.5752,151.5556,151.536,151.5165,151.4969,151.4773,151.4577,151.4382,151.4186,151.3991,151.3795,151.36,151.3405,151.321,151.3014,151.2819,151.2624,151.2429,151.2234,151.2039,151.1844,151.1649,151.1454,151.126,151.1065,151.087,151.0676,151.0481,151.0286,151.0092,150.9898,150.9703,150.9509,150.9315,150.912,150.8926,150.8732,150.8538,150.8344,150.815,150.7956,150.7762,150.7568,150.7375,150.7181,150.6987,150.6794
110.0807,110.1028,109.0554,109.1982,109.2532,109.2684,109.258,109.2076,109.1836,109.4776,109.5613,115.5774,115.6475,112.3883,112.3648,112.3494,112.3385,112.3307,112.3331,112.3376,112.3571,112.3913,112.4381,112.5058,117.4053,117.4422,117.4791,117.5161,117.5457,117.5967,117.6672,112.0595,112.0176,111.9902,111.7473,111.6523,111.62,110.9774,111.1506,111.2351,111.2724,111.283,111.2693,111.2286,111.2438,113.8377,113.8842,114.031,118.6759,118.6676,118.6592,118.6509,118.6426,118.6343,118.626,118.6177,118.6067,118.5896,118.5633,115.3317,115.3584,115.4109,115.4714,115.5399,115.633,118.4344,118.4223,118.4109,115.9501,115.8522,115.8148,115.5793,115.4742,115.6865,115.935,118.3529,118.3325,108.8211,108.7871,108.7639,108.7442,108.736,108.7316,107.9215,108.0093,108.0819,108.1011,108.0936,108.0525,108.0016,108.2303,108.7412,108.6921,108.6529,108.6476,108.6586,108.6994,108.7986,109.3261,113.4189,118.6211,118.6221,118.6232,118.6242,118.6252,118.6339,118.6539,118.6553,118.6437,118.6322,118.6206,118.609,118.5975,118.5859,118.5744,118.5628,118.5513,118.5397,118.5268,118.5025,118.4728,118.443,118.4133,118.3529,117.383,117.3372,117.3134,117.3158,117.3361,117.3854,117.5016,117.6597,117.4811,117.2637,117.0112,107.3164,107.2562,107.2312,107.23,107.2629,107.3397,115.8009,115.721,115.6413,115.5617,115.4822,115.402,114.4343,114.4454,114.4619,109.4665,109.406,109.3933,109.3944,109.4208,109.4879,113.2401,113.2102,113.1804,113.1845,113.2181,113.291,114.9514,114.9766,114.9821,114.9868,114.9915,114.9961,115.0008,115.0055,115.0101,115.0148,115.0148,115.0041,114.9904,114.9717,110.8795,109.7152,109.4896,109.42,109.4511,109.5251,109.6625,109.83,110.043,110.2839,110.5847,110.9469,111.5243,112.2123,112.9089,113.6142,114.3283,115.0515,115.7838,116.5256,117.2769,118.038,153.3999,153.3798,153.3597,153.3397,153.3197,153.2996,153.2796,153.2595,153.2395,153.2195,153.1995,153.1795,153.1595,153.1395,153.1195,153.0995,153.0795,153.0595,153.0395,153.0196,152.9996,152.9797,152.9597,152.9398,152.9198,152.8999,152.8799,152.86,152.8401,152.8202,152.8003,152.7803,152.7605,152.7406,152.7207,152.7008,152.6809,152.661,152.6412,152.6213,152.6014,152.5816,152.5618,152.5419,152.522,152.5022,152.4824,152.4626,152.4427,152.4229,152.4031,152.3833,152.3635,152.3437,152.3239,152.3042,152.2844,152.2646,152.2449,152.2251,152.2053,152.1856,152.1658,152.1461,152.1264,152.1066,152.0869,152.0672,152.0475,152.0278,152.0081,151.9884,151.9687,151.949,151.9293,151.9096,151.8899,151.8703,151.8506,151.8309,151.8113,151.7916,151.772,151.7523,151.7327,151.7131,151.6935,151.6738,151.6542,151.6346,151.615,151.5954,151.5758,151.5562,151.5367,151.5171,151.4975,151.4779,151.4584,151.4388,151.4193,151.3997,151.3802,151.3606,151.3411,151.3216,151.302,151.2825,151.263,151.2435,151.224,151.2045,151.185,151.1655,151.1461,151.1266,151.1071,151.0876,151.0682,151.0487,151.0293,151.0098,150.9904,150.9709,150.9515,150.9321,150.9127,150.8932,150.8738,150.8544,150.835,150.8156,150.7962,150.7768,150.7575,150.7381,150.7187,150.6993
110.0522,110.0606,109.1167,109.2614,109.3067,109.3161,109.2975,109.2428,109.2435,109.4975,109.5783,115.5834,115.6635,116.8975,112.3724,112.3511,112.3367,112.3276,112.3224,112.3259,112.3305,112.3523,112.3865,112.436,112.5086,117.2021,117.2266,117.2512,117.2782,117.3328,117.3977,112.0789,112.0225,111.9901,111.7705,111.6726,111.6395,111.028,111.2283,111.2974,111.3221,111.3263,111.3026,111.2665,113.8425,113.8586,113.9018,114.0315,118.5022,118.5004,118.4985,118.4966,118.4948,118.4867,118.4784,118.4701,118.4572,118.4401,118.4212,118.4023,118.3386,115.4253,115.466,115.5217,115.5878,115.6791,118.2607,118.2513,118.1692,115.8734,115.8335,115.5802,115.4979,115.6906,115.9309,118.1779,118.2045,118.1855,108.812,108.7763,108.7524,108.7325,108.7255,107.9792,108.0722,108.1334,108.1502,108.135,108.0921,108.0542,108.2428,108.7401,108.7085,108.6736,108.6709,108.6862,108.7285,108.8416,113.3418,113.4294,118.4444,118.4454,118.4465,118.4606,118.4871,118.5136,118.5325,118.5305,118.5261,118.5146,118.503,118.4915,118.48,118.4684,118.4569,118.4454,118.4338,118.4223,118.4071,118.3788,118.3491,118.3194,118.2897,118.2261,117.3966,117.3535,117.3299,117.3331,117.3548,117.404,117.4794,117.3352,117.1496,116.9647,116.7667,107.3541,107.2931,107.2676,107.2658,107.2977,107.3724,115.5045,115.4251,115.3458,115.2656,115.1677,115.0699,114.4703,114.4738,114.4936,109.4807,109.4202,109.4076,109.4095,109.4362,109.5033,113.2583,113.229,113.2023,113.2074,113.2438,113.325,114.7189,114.7223,114.7269,114.7316,114.7362,114.7408,114.7434,114.7328,114.7221,114.7115,114.7008,114.6893,114.6706,114.652,109.6456,109.2877,109.166,109.1342,109.1953,109.2974,109.4486,109.6378,109.8661,110.1333,110.4433,110.8841,111.5493,112.2376,112.9345,113.6401,114.3546,115.0781,115.8108,116.5529,117.3046,118.066,153.4206,153.4005,153.3804,153.3604,153.3403,153.3203,153.3002,153.2802,153.2602,153.2401,153.2201,153.2001,153.1801,153.1601,153.1401,153.1201,153.1001,153.0801,153.0601,153.0402,153.0202,153.0002,152.9803,152.9603,152.9404,152.9205,152.9005,152.8806,152.8606,152.8407,152.8208,152.8009,152.781,152.7611,152.7412,152.7213,152.7014,152.6815,152.6617,152.6418,152.6219,152.6021,152.5822,152.5624,152.5425,152.5227,152.5029,152.483,152.4632,152.4434,152.4236,152.4038,152.3839,152.3642,152.3444,152.3246,152.3048,152.285,152.2652,152.2455,152.2257,152.206,152.1862,152.1664,152.1467,152.127,152.1073,152.0875,152.0678,152.0481,152.0284,152.0087,151.989,151.9693,151.9496,151.9299,151.9102,151.8905,151.8709,151.8512,151.8316,151.8119,151.7923,151.7726,151.753,151.7333,151.7137,151.6941,151.6745,151.6548,151.6352,151.6156,151.596,151.5765,151.5569,151.5373,151.5177,151.4981,151.4785,151.459,151.4394,151.4199,151.4003,151.3808,151.3613,151.3417,151.3222,151.3027,151.2832,151.2636,151.2441,151.2246,151.2051,151.1856,151.1661,151.1467,151.1272,151.1077,151.0883,151.0688,151.0493,151.0299,151.0104,150.991,150.9715,150.9521,150.9327,150.9133,150.8939,150.8744,150.855,150.8356,150.8162,150.7968,150.7775,150.7581,150.7387,150.7193
110.0275,110.0294,109.1786,109.3225,109.3593,109.363,109.3349,109.2855,109.3165,109.5175,109.5953,115.5951,115.675,116.6803,116.5743,112.3582,112.3396,112.3283,112.32,112.3151,112.3188,112.3235,112.3477,112.3817,112.4339,112.512,116.9548,116.9792,117.0086,117.0716,117.1361,117.1293,112.0304,111.9942,111.7952,111.6944,111.6557,111.09,111.299,111.3529,111.3706,111.3672,111.332,111.3146,113.8674,113.8796,113.9194,114.0336,118.303,118.3012,118.2993,118.2975,118.2956,118.2938,118.2919,118.2901,118.2893,118.2835,118.2656,118.2476,118.2295,118.2006,115.4999,115.527,115.5763,115.6478,115.7294,118.1025,118.0495,115.895,115.8555,115.5816,115.5456,115.7493,115.9299,117.988,118.047,118.0435,118.0264,108.8085,108.7662,108.7421,108.7248,108.0369,108.1055,108.1822,108.1941,108.1697,108.1237,108.1096,108.2565,108.7464,108.725,108.6946,108.6942,108.7146,108.7591,108.912,113.3444,113.4286,118.2682,118.2877,118.3142,118.3406,118.367,118.3928,118.4036,118.4016,118.3996,118.3972,118.3857,118.3742,118.3627,118.3512,118.3397,118.3282,118.3166,118.3051,118.2851,118.2554,118.2258,118.1961,118.1665,118.0705,117.4101,117.3698,117.3471,117.3503,117.3735,117.4091,117.2883,117.1029,116.9182,116.7339,116.5368,107.3918,107.3301,107.3043,107.3019,107.3325,107.4052,115.1882,115.1296,115.0319,114.9343,114.8369,114.7396,114.5059,114.484,114.3977,109.4949,109.4344,109.4218,109.4234,109.4502,109.5171,113.2771,113.2478,113.2241,113.2303,113.2696,113.3591,114.4636,114.4682,114.4728,114.4628,114.4522,114.4416,114.4309,114.4204,114.4097,114.3991,114.3885,114.3712,114.3526,114.1888,109.148,108.9208,108.849,108.8791,108.9491,109.085,109.2483,109.458,109.6927,109.9896,110.3379,110.894,111.5743,112.2629,112.9601,113.666,114.3808,115.1047,115.8377,116.5802,117.3322,118.094,153.4413,153.4212,153.4011,153.3811,153.361,153.341,153.3209,153.3009,153.2808,153.2608,153.2408,153.2208,153.2007,153.1807,153.1607,153.1407,153.1207,153.1007,153.0808,153.0608,153.0408,153.0208,153.0009,152.9809,152.961,152.941,152.9211,152.9011,152.8812,152.8613,152.8414,152.8214,152.8015,152.7816,152.7617,152.7418,152.7219,152.702,152.6822,152.6623,152.6424,152.6225,152.6027,152.5828,152.563,152.5432,152.5233,152.5035,152.4836,152.4638,152.444,152.4242,152.4044,152.3846,152.3648,152.345,152.3252,152.3054,152.2856,152.2659,152.2461,152.2263,152.2066,152.1868,152.1671,152.1474,152.1276,152.1079,152.0882,152.0684,152.0487,152.029,152.0093,151.9896,151.9699,151.9502,151.9305,151.9108,151.8912,151.8715,151.8518,151.8322,151.8125,151.7929,151.7732,151.7536,151.734,151.7143,151.6947,151.6751,151.6555,151.6359,151.6163,151.5967,151.5771,151.5575,151.5379,151.5183,151.4987,151.4792,151.4596,151.44,151.4205,151.4009,151.3814,151.3619,151.3423,151.3228,151.3033,151.2838,151.2643,151.2448,151.2253,151.2057,151.1862,151.1668,151.1473,151.1278,151.1083,151.0889,151.0694,151.0499,151.0305,151.011,150.9916,150.9722,150.9527,150.9333,150.9139,150.8945,150.875,150.8557,150.8362,150.8168,150.7975,150.7781,150.7587,150.7393
110.0158,110.0107,109.2468,109.3784,109.4069,109.404,109.3692,109.3323,109.5037,109.5372,109.6123,115.6072,115.6865,116.425,116.3903,116.3507,112.3499,112.3321,112.3207,112.3123,112.3077,112.3117,112.3166,112.3432,112.3769,112.4319,112.5157,116.7085,116.7472,116.8114,116.8757,116.9335,112.0444,112.0023,111.824,111.7151,111.1334,111.2624,111.3625,111.404,111.4161,111.4044,111.3655,111.3688,113.8896,113.9009,113.9373,114.0355,118.0853,118.1026,118.1008,118.0989,118.0971,118.0953,118.0934,118.0916,118.0912,118.0962,118.1022,118.087,118.069,118.051,118.033,117.9704,115.5983,115.6531,115.7202,117.9341,117.9107,115.9206,115.8775,115.6062,115.5982,115.8782,115.9295,116.0426,117.89,117.8865,117.883,117.8669,108.8124,108.7625,108.7396,108.0951,108.1269,108.2205,108.2264,108.1971,108.1605,108.1713,108.2698,108.4014,108.7416,108.7171,108.7183,108.7428,108.7923,113.3004,113.3471,113.4277,118.1418,118.1681,118.1945,118.2209,118.2473,118.2672,118.275,118.273,118.2709,118.2689,118.2669,118.2571,118.2456,118.2341,118.2227,118.2112,118.1997,118.186,118.1618,118.1322,118.1026,118.0731,118.0022,117.8189,117.4237,117.3861,117.364,117.3659,117.358,117.2372,117.0563,116.8717,116.6876,116.5041,116.3121,107.4296,107.3672,107.3404,107.3379,107.3674,107.4379,114.8731,114.799,114.7018,114.6048,114.4916,114.3762,114.2991,114.2698,114.1835,109.5091,109.4489,109.436,109.4375,109.4641,109.5309,113.2959,113.2666,113.2464,113.2538,113.2954,113.3932,114.1835,114.1729,114.1623,114.1518,114.1413,114.1307,114.1201,114.1096,114.0991,114.0885,114.0733,114.0548,114.0364,109.0858,108.7249,108.6005,108.5654,108.6259,108.7263,108.8734,109.0571,109.2812,109.5431,109.848,110.2671,110.9187,111.5993,112.2882,112.9857,113.692,114.4071,115.1313,115.8647,116.6075,117.3598,118.122,153.462,153.4419,153.4218,153.4018,153.3817,153.3616,153.3416,153.3215,153.3015,153.2815,153.2614,153.2414,153.2214,153.2014,153.1814,153.1614,153.1414,153.1214,153.1014,153.0814,153.0614,153.0414,153.0215,153.0015,152.9816,152.9616,152.9417,152.9217,152.9018,152.8818,152.8619,152.842,152.8221,152.8022,152.7822,152.7624,152.7424,152.7226,152.7027,152.6828,152.6629,152.6431,152.6232,152.6033,152.5835,152.5636,152.5438,152.5239,152.5041,152.4843,152.4644,152.4446,152.4248,152.405,152.3852,152.3654,152.3456,152.3258,152.306,152.2863,152.2665,152.2467,152.227,152.2072,152.1875,152.1677,152.148,152.1282,152.1085,152.0888,152.0691,152.0493,152.0296,152.0099,151.9902,151.9705,151.9508,151.9311,151.9115,151.8918,151.8721,151.8524,151.8328,151.8131,151.7935,151.7738,151.7542,151.7346,151.7149,151.6953,151.6757,151.6561,151.6365,151.6169,151.5973,151.5777,151.5581,151.5385,151.5189,151.4994,151.4798,151.4602,151.4407,151.4211,151.4016,151.382,151.3625,151.343,151.3234,151.3039,151.2844,151.2649,151.2454,151.2259,151.2064,151.1869,151.1674,151.1479,151.1284,151.1089,151.0895,151.07,151.0506,151.0311,151.0116,150.9922,150.9728,150.9533,150.9339,150.9145,150.8951,150.8757,150.8563,150.8368,150.8175,150.7981,150.7787,150.7593
110.0108,109.2965,109.3328,109.4299,109.4527,109.4359,109.3956,109.3881,109.5244,109.5572,109.6293,115.6193,115.698,116.2568,116.2512,116.2614,116.2448,112.3427,112.3245,112.313,112.3047,112.3002,112.3046,112.3101,112.3387,112.3721,112.43,116.3975,116.4885,116.5524,116.6164,116.6804,116.6927,112.018,111.8688,111.7365,111.1742,111.35,111.4249,111.4537,111.46,111.4392,111.4016,113.9119,113.9155,113.9266,113.9595,114.0361,117.8061,117.8591,117.9015,117.9011,117.8992,117.8974,117.8956,117.8937,117.8936,117.8995,117.9054,117.9115,117.9088,117.891,117.8731,117.8551,117.8372,117.7838,117.7339,117.7834,117.7654,115.9597,115.8987,115.8681,115.8663,115.8862,115.9292,116.0193,117.6996,117.7009,117.7021,117.7034,117.7047,117.6863,108.8009,108.152,108.1691,108.2208,108.2279,108.2229,108.21,108.2457,108.2845,108.3862,108.7581,108.7402,108.7425,108.7719,108.8321,113.3049,113.3499,113.4269,118.0172,118.0488,118.0751,118.1014,118.1277,118.1476,118.1466,118.1446,118.1426,118.1406,118.1385,118.1365,118.1288,118.1173,118.1059,118.0944,118.083,118.0679,118.0388,118.0093,117.9768,117.8716,117.7509,117.5911,117.4376,117.3963,117.3537,117.2586,117.1637,117.0097,116.8252,116.6413,116.458,116.2752,116.0636,107.4674,107.4043,107.3771,107.3737,107.4022,107.4717,114.5151,114.4289,114.3136,114.1986,114.1327,114.1035,114.0743,114.0459,113.9658,109.5233,109.4632,109.4501,109.4515,109.4781,109.5447,113.3147,113.2857,113.269,113.2767,113.3211,113.4273,114.0069,113.9882,113.9696,113.951,113.9323,113.9137,113.8951,113.8765,113.8579,113.8228,113.7925,113.7701,113.6488,108.5866,108.3594,108.2836,108.313,108.3815,108.5136,108.6717,108.8791,109.1099,109.4009,109.7356,110.2708,110.9434,111.6243,112.3135,113.0114,113.7179,114.4334,115.1579,115.8916,116.6348,117.3875,118.15,153.4827,153.4626,153.4426,153.4225,153.4024,153.3823,153.3623,153.3422,153.3222,153.3021,153.2821,153.2621,153.2421,153.222,153.202,153.182,153.162,153.142,153.122,153.102,153.082,153.062,153.0421,153.0221,153.0021,152.9822,152.9622,152.9423,152.9223,152.9024,152.8825,152.8625,152.8426,152.8227,152.8028,152.7829,152.763,152.7431,152.7232,152.7033,152.6834,152.6636,152.6437,152.6238,152.6039,152.5841,152.5642,152.5444,152.5246,152.5047,152.4849,152.4651,152.4453,152.4254,152.4056,152.3858,152.366,152.3462,152.3264,152.3067,152.2869,152.2671,152.2473,152.2276,152.2078,152.1881,152.1683,152.1486,152.1288,152.1091,152.0894,152.0697,152.05,152.0303,152.0105,151.9908,151.9711,151.9514,151.9318,151.9121,151.8924,151.8727,151.8531,151.8334,151.8138,151.7941,151.7745,151.7548,151.7352,151.7156,151.696,151.6763,151.6567,151.6371,151.6175,151.5979,151.5783,151.5587,151.5391,151.5195,151.5,151.4804,151.4608,151.4413,151.4217,151.4022,151.3826,151.3631,151.3436,151.324,151.3045,151.285,151.2655,151.246,151.2265,151.207,151.1875,151.168,151.1485,151.129,151.1096,151.0901,151.0706,151.0512,151.0317,151.0123,150.9928,150.9734,150.9539,150.9345,150.9151,150.8957,150.8763,150.8569,150.8375,150.8181,150.7987,150.7793
110.0199,109.3498,109.3669,109.4759,109.4898,109.4599,109.4291,109.4516,109.5453,109.5772,109.6463,115.6314,115.7095,116.1271,116.1312,116.1414,116.1516,116.135,112.3356,112.317,112.3054,112.2971,112.2929,112.2976,112.3035,112.3341,112.3688,112.4281,116.283,116.3118,116.3583,116.422,116.4858,116.4723,111.9135,111.7591,111.2238,111.4261,111.4811,111.5011,111.5015,111.4684,111.4454,113.9633,113.9459,113.9549,113.9825,114.0408,117.5047,117.5704,117.6232,117.676,117.7021,117.7002,117.6984,117.6967,117.6974,117.7034,117.7094,117.7153,117.7213,117.7273,117.7136,117.6957,117.6778,117.6599,117.642,117.6241,117.6062,115.9998,115.9199,115.8846,115.8804,115.8948,115.9326,116.0151,117.5034,117.5046,117.5059,117.5072,117.5084,117.5097,117.5298,108.216,108.2162,108.2374,108.2486,108.256,108.2495,108.2662,108.2993,108.3818,108.7754,108.7633,108.7676,108.8009,108.8718,113.3093,113.3526,113.426,117.8981,117.9296,117.9559,117.9821,118.0084,118.0206,118.0186,118.0165,118.0145,118.0125,118.0105,118.0085,118.0064,118.0008,117.9893,117.9779,117.9665,117.9456,117.9161,117.862,117.7413,117.6354,117.5399,117.4445,117.3493,117.2542,117.1593,117.0646,116.9587,116.7788,116.595,116.4118,116.2214,116.0098,115.7952,107.5057,107.4414,107.4138,107.4096,107.4376,107.5048,114.1018,114.0215,113.9667,113.9376,113.9085,113.8794,113.8503,113.8287,113.7322,109.5375,109.4779,109.4644,109.4655,109.4921,109.5586,113.3335,113.3048,113.2915,113.3009,113.3469,113.4615,113.8309,113.8123,113.7938,113.7752,113.7566,113.738,113.7195,113.6859,113.6361,113.5906,113.5637,113.5413,108.5318,108.1668,108.0409,108.0047,108.0624,108.1588,108.3042,108.4825,108.7042,108.9592,109.2591,109.6634,110.2952,110.9681,111.6493,112.3389,113.037,113.7439,114.4597,115.1845,115.9186,116.6621,117.4152,118.1781,153.5034,153.4833,153.4633,153.4432,153.4231,153.403,153.383,153.3629,153.3428,153.3228,153.3028,153.2827,153.2627,153.2427,153.2227,153.2027,153.1826,153.1626,153.1426,153.1226,153.1026,153.0826,153.0627,153.0427,153.0227,153.0028,152.9828,152.9628,152.9429,152.923,152.903,152.8831,152.8632,152.8432,152.8233,152.8034,152.7835,152.7636,152.7437,152.7238,152.7039,152.6841,152.6642,152.6443,152.6244,152.6046,152.5847,152.5649,152.545,152.5252,152.5054,152.4855,152.4657,152.4459,152.4261,152.4063,152.3865,152.3667,152.3469,152.3271,152.3073,152.2875,152.2677,152.248,152.2282,152.2085,152.1887,152.169,152.1492,152.1295,152.1097,152.09,152.0703,152.0506,152.0309,152.0112,151.9915,151.9718,151.9521,151.9324,151.9127,151.893,151.8734,151.8537,151.834,151.8144,151.7947,151.7751,151.7554,151.7358,151.7162,151.6966,151.6769,151.6573,151.6377,151.6181,151.5985,151.5789,151.5593,151.5397,151.5202,151.5006,151.481,151.4615,151.4419,151.4223,151.4028,151.3833,151.3637,151.3442,151.3246,151.3051,151.2856,151.2661,151.2466,151.2271,151.2076,151.1881,151.1686,151.1491,151.1297,151.1102,151.0907,151.0712,151.0518,151.0323,151.0129,150.9934,150.974,150.9546,150.9351,150.9157,150.8963,150.8769,150.8575,150.8381,150.8187,150.7993
110.0544,109.3989,109.4132,109.4765,109.4878,109.4835,109.4783,109.5561,109.566,109.5972,109.6633,115.6436,115.7211,116.0032,116.0114,116.0216,116.0318,116.0419,116.0323,112.3285,112.3094,112.2978,112.2894,112.2858,112.2907,112.2973,112.3296,112.3667,112.4261,116.1958,116.2219,116.248,116.2741,116.3002,111.9591,111.7794,111.2886,111.4795,111.5242,111.5393,111.5326,111.5005,111.4994,114.0019,113.9767,113.9832,114.0054,114.0633,117.2494,117.3046,117.3387,117.3882,117.4408,117.4846,117.5019,117.5004,117.502,117.5079,117.5139,117.5199,117.5258,117.5318,117.5378,117.5365,117.5188,117.501,117.4831,117.4653,117.4475,116.0469,115.9411,115.9015,115.8945,115.9034,115.9395,116.0116,117.2888,117.3091,117.3103,117.3116,117.3129,117.3196,117.3397,117.3089,108.2724,108.2835,108.294,108.2834,108.2712,108.2853,108.316,108.3932,108.7952,108.7864,108.7941,108.8301,108.9119,113.314,113.3554,113.4252,117.7727,117.8107,117.8369,117.8631,117.8829,117.8928,117.8908,117.8887,117.8867,117.8847,117.8827,117.8807,117.8787,117.8766,117.873,117.8616,117.8477,117.8231,117.7317,117.6311,117.5355,117.4402,117.345,117.2499,117.155,117.0603,116.9657,116.8712,116.7324,116.5488,116.3657,116.1636,115.9523,115.7417,115.3083,107.5442,107.4787,107.4504,107.4455,107.4727,107.5389,113.7712,113.7722,113.7432,113.7142,113.6852,113.6562,113.6272,113.6127,113.5227,109.5517,109.4923,109.4786,109.4796,109.5061,109.5724,113.3523,113.3238,113.314,113.3247,113.3728,113.4962,113.6555,113.637,113.6185,113.5999,113.5814,113.5493,113.4996,113.4499,113.4004,113.3603,113.3358,113.2155,108.031,107.8022,107.7272,107.7527,107.8205,107.9481,108.1044,108.3064,108.5348,108.8185,109.1419,109.6546,110.3197,110.9929,111.6743,112.3642,113.0627,113.7699,114.486,115.2112,115.9456,116.6894,117.4429,118.2061,153.5242,153.5041,153.484,153.4639,153.4438,153.4237,153.4037,153.3836,153.3636,153.3435,153.3234,153.3034,153.2834,153.2633,153.2433,153.2233,153.2033,153.1833,153.1633,153.1433,153.1233,153.1033,153.0833,153.0633,153.0433,153.0234,153.0034,152.9834,152.9635,152.9435,152.9236,152.9037,152.8837,152.8638,152.8439,152.824,152.804,152.7841,152.7642,152.7443,152.7244,152.7046,152.6847,152.6648,152.6449,152.6251,152.6052,152.5854,152.5655,152.5457,152.5258,152.506,152.4862,152.4663,152.4465,152.4267,152.4069,152.3871,152.3673,152.3475,152.3277,152.3079,152.2881,152.2684,152.2486,152.2288,152.2091,152.1893,152.1696,152.1498,152.1301,152.1104,152.0906,152.0709,152.0512,152.0315,152.0118,151.9921,151.9724,151.9527,151.933,151.9133,151.8936,151.874,151.8543,151.8347,151.815,151.7953,151.7757,151.7561,151.7364,151.7168,151.6972,151.6776,151.6579,151.6383,151.6187,151.5991,151.5795,151.56,151.5404,151.5208,151.5012,151.4817,151.4621,151.4425,151.423,151.4034,151.3839,151.3643,151.3448,151.3253,151.3058,151.2862,151.2667,151.2472,151.2277,151.2082,151.1887,151.1692,151.1497,151.1303,151.1108,151.0913,151.0719,151.0524,151.033,151.0135,150.9941,150.9746,150.9552,150.9358,150.9163,150.8969,150.8775,150.8581,150.8387,150.8193
110.323,109.4587,109.4636,109.4894,109.5042,109.5185,109.5417,109.5866,109.5868,109.6172,109.6804,115.6557,115.7326,115.8817,115.8919,115.902,115.9122,115.9223,115.9325,115.9239,112.3217,112.3019,112.2901,112.2818,112.2787,112.284,112.2926,112.3256,112.3643,112.4267,116.1061,116.1322,116.1582,116.1843,116.1458,111.3329,111.4395,111.5289,111.565,111.5758,111.5614,111.5319,111.5629,114.0355,114.0084,114.0115,114.0308,114.0857,117.0098,117.0928,117.1267,117.1607,117.1947,117.2287,117.2627,117.3011,117.3072,117.3132,117.3191,117.3251,117.331,117.337,117.3429,117.3488,117.3548,117.3423,117.3247,117.3069,117.2891,117.2103,115.9623,115.9202,115.9087,115.9129,115.9464,116.0112,117.0654,117.1141,117.1154,117.1167,117.1179,117.1301,117.1502,117.1702,108.3412,108.3475,108.3355,108.3069,108.2934,108.3045,108.3328,108.4058,108.815,108.8095,108.8208,108.8593,108.955,113.3189,113.3581,113.4244,117.6484,117.6921,117.7182,117.7444,117.7641,117.7652,117.7632,117.7612,117.7592,117.7572,117.7552,117.7532,117.7512,117.7492,117.7471,117.7451,117.7185,117.6267,117.5312,117.4358,117.3406,117.2456,117.1507,117.0559,116.9614,116.8669,116.7726,116.6695,116.5026,116.3178,116.1059,115.8948,115.6844,115.2653,114.6992,107.5827,107.5162,107.4873,107.4814,107.5081,107.5732,113.5484,113.5495,113.5206,113.4917,113.4628,113.4339,113.405,113.399,113.3138,109.5659,109.507,109.4928,109.494,109.5201,109.5863,113.3711,113.3443,113.3366,113.3482,113.3986,113.4749,113.4807,113.4622,113.4437,113.413,113.3635,113.3139,113.2645,113.215,113.1656,113.131,113.1088,107.9833,107.6155,107.487,107.4508,107.5047,107.5971,107.7409,107.9146,108.1333,108.3832,108.6782,109.0684,109.6787,110.3441,111.0176,111.6994,112.3896,113.0884,113.7959,114.5123,115.2378,115.9726,116.7168,117.4706,118.2342,153.5449,153.5248,153.5047,153.4846,153.4645,153.4444,153.4244,153.4043,153.3842,153.3642,153.3441,153.3241,153.304,153.284,153.264,153.2439,153.2239,153.2039,153.1839,153.1639,153.1439,153.1239,153.1039,153.0839,153.0639,153.044,153.024,153.004,152.9841,152.9641,152.9442,152.9242,152.9043,152.8844,152.8644,152.8445,152.8246,152.8047,152.7848,152.7649,152.745,152.7251,152.7052,152.6853,152.6654,152.6456,152.6257,152.6058,152.586,152.5661,152.5463,152.5264,152.5066,152.4868,152.4669,152.4471,152.4273,152.4075,152.3877,152.3679,152.3481,152.3283,152.3085,152.2888,152.269,152.2492,152.2295,152.2097,152.19,152.1702,152.1505,152.1307,152.111,152.0913,152.0715,152.0518,152.0321,152.0124,151.9927,151.973,151.9533,151.9336,151.914,151.8943,151.8746,151.8549,151.8353,151.8156,151.796,151.7763,151.7567,151.7371,151.7174,151.6978,151.6782,151.6586,151.639,151.6194,151.5997,151.5802,151.5606,151.541,151.5214,151.5018,151.4823,151.4627,151.4431,151.4236,151.404,151.3845,151.3649,151.3454,151.3259,151.3064,151.2868,151.2673,151.2478,151.2283,151.2088,151.1893,151.1698,151.1504,151.1309,151.1114,151.0919,151.0725,151.053,151.0336,151.0141,150.9947,150.9752,150.9558,150.9364,150.9169,150.8975,150.8781,150.8587,150.8393
110.333,110.3364,109.5176,109.5353,109.5525,109.5732,109.621,109.6085,109.6077,109.6372,109.6977,115.6678,115.7206,115.7624,115.7726,115.7827,115.7928,115.803,115.8131,115.8233,115.8147,112.3151,112.2947,112.2825,112.2743,112.2727,112.279,112.2887,112.3217,112.3618,112.4334,116.0166,116.0426,116.0686,116.0354,111.3737,111.5033,111.5777,111.6053,111.6112,111.5877,111.5681,114.1119,114.0692,114.0406,114.0398,114.0573,114.1091,116.7521,116.8817,116.9156,116.9494,116.9833,117.0172,117.0511,117.0831,117.1109,117.1286,117.1317,117.1348,117.1379,117.1427,117.1487,117.1546,117.1605,117.1665,117.1665,117.1489,117.1309,117.0788,115.984,115.9422,115.924,115.9256,115.9538,116.0107,116.1749,116.9275,116.9212,116.9224,116.9236,116.9413,116.9613,116.9813,116.9578,108.4276,108.3669,108.3303,108.3159,108.3235,108.3506,108.4183,108.8338,108.8327,108.8491,108.8885,108.9983,113.3237,113.3608,113.4235,117.4947,117.5519,117.5832,117.6145,117.6313,117.628,117.6247,117.6215,117.6182,117.6149,117.6116,117.6084,117.6051,117.6018,117.5995,117.6092,117.5642,117.4604,117.3567,117.2532,117.152,117.0529,116.9575,116.8626,116.7683,116.6742,116.5802,116.4564,116.2599,116.0482,115.8373,115.6271,115.2176,114.6063,114.1392,107.6213,107.5534,107.5243,107.5175,107.5436,107.6076,113.3061,113.3202,113.2856,113.251,113.2164,113.1819,113.1762,113.1894,113.108,109.5804,109.5216,109.507,109.5084,109.534,109.6001,113.2924,113.3512,113.3501,113.3506,113.3432,113.3248,113.3063,113.2771,113.2277,113.1783,113.1289,113.0796,113.0303,112.9811,112.9319,112.9048,112.6789,107.481,107.2508,107.1751,107.1982,107.2646,107.3885,107.5414,107.7396,107.9656,108.2422,108.5539,109.0476,109.7029,110.3686,111.0424,111.7244,112.4149,113.114,113.8219,114.5387,115.2645,115.9996,116.7441,117.4983,118.2623,153.5656,153.5455,153.5254,153.5053,153.4852,153.4652,153.4451,153.425,153.4049,153.3849,153.3648,153.3448,153.3247,153.3047,153.2846,153.2646,153.2446,153.2245,153.2045,153.1845,153.1645,153.1445,153.1245,153.1045,153.0845,153.0646,153.0446,153.0246,153.0047,152.9847,152.9648,152.9448,152.9249,152.9049,152.885,152.8651,152.8451,152.8252,152.8053,152.7854,152.7655,152.7456,152.7257,152.7058,152.6859,152.6661,152.6462,152.6263,152.6065,152.5866,152.5668,152.5469,152.5271,152.5072,152.4874,152.4676,152.4478,152.4279,152.4081,152.3883,152.3685,152.3487,152.3289,152.3092,152.2894,152.2696,152.2498,152.2301,152.2103,152.1906,152.1708,152.1511,152.1313,152.1116,152.0919,152.0722,152.0524,152.0327,152.013,151.9933,151.9736,151.9539,151.9342,151.9146,151.8949,151.8752,151.8556,151.8359,151.8163,151.7966,151.777,151.7573,151.7377,151.7181,151.6984,151.6788,151.6592,151.6396,151.62,151.6004,151.5808,151.5612,151.5416,151.522,151.5025,151.4829,151.4633,151.4438,151.4242,151.4046,151.3851,151.3656,151.346,151.3265,151.307,151.2875,151.2679,151.2484,151.2289,151.2094,151.1899,151.1705,151.151,151.1315,151.112,151.0926,151.0731,151.0536,151.0342,151.0147,150.9953,150.9758,150.9564,150.937,150.9176,150.8981,150.8787,150.8593
110.3434,110.3503,109.587,109.6039,109.6246,109.6855,109.6484,109.6305,109.629,109.6572,109.7161,115.5978,115.6352,115.6434,115.6535,115.6636,115.6738,115.6839,115.694,115.7041,115.7143,115.7125,112.308,112.2876,112.2757,112.2692,112.2678,112.2743,112.2848,112.3174,112.3594,112.4386,115.9272,115.9532,115.9368,111.4169,111.5629,111.6243,111.645,111.6433,111.6137,111.6145,114.1694,114.1035,114.0737,114.0683,114.0838,114.1326,114.2653,116.6611,116.7051,116.7389,116.7726,116.8064,116.8401,116.8713,116.9011,116.9301,116.9562,116.9602,116.9633,116.9664,116.9694,116.9725,116.9756,116.9787,116.9818,116.9849,116.9718,116.9409,116.0108,115.9643,115.9393,115.9382,115.9623,116.0103,116.0999,116.7696,116.7471,116.7295,116.7332,116.7436,116.7504,116.7572,116.7439,108.4637,108.3935,108.3538,108.3383,108.3432,108.3693,108.4312,108.8535,108.8561,108.8774,108.9191,109.0667,113.3286,113.3636,113.4227,117.3383,117.4067,117.4379,117.4651,117.4766,117.4734,117.4701,117.4668,117.4636,117.4603,117.457,117.4538,117.4508,117.4565,117.4754,117.4905,117.4191,117.3155,117.2121,117.1089,117.0059,116.903,116.8003,116.6978,116.5955,116.4934,116.3934,116.2021,115.9906,115.7799,115.57,115.1699,114.5033,114.0602,113.6446,107.6592,107.591,107.5613,107.5538,107.579,107.6419,112.9527,112.9736,112.9392,112.9323,112.9442,112.9577,112.9712,112.9858,112.9046,109.595,109.5362,109.5212,109.5229,109.548,109.6139,113.0845,113.1718,113.193,113.1877,113.1693,113.1415,113.0922,113.0429,112.9936,112.9445,112.8953,112.8503,112.8084,112.7665,112.7099,112.631,107.4403,107.0697,106.9388,106.8994,106.9528,107.0437,107.1835,107.3554,107.5683,107.8115,108.1034,108.4798,109.0691,109.7271,110.393,111.0671,111.7495,112.4403,113.1397,113.8479,114.565,115.2912,116.0266,116.7715,117.526,118.2903,153.5864,153.5663,153.5462,153.5261,153.506,153.4859,153.4658,153.4457,153.4256,153.4056,153.3855,153.3655,153.3454,153.3253,153.3053,153.2853,153.2652,153.2452,153.2252,153.2052,153.1852,153.1651,153.1451,153.1252,153.1051,153.0852,153.0652,153.0452,153.0252,153.0053,152.9853,152.9654,152.9454,152.9255,152.9055,152.8856,152.8657,152.8457,152.8259,152.8059,152.786,152.7661,152.7462,152.7263,152.7065,152.6866,152.6667,152.6468,152.627,152.6071,152.5872,152.5674,152.5475,152.5277,152.5079,152.488,152.4682,152.4484,152.4286,152.4088,152.3889,152.3692,152.3494,152.3296,152.3098,152.29,152.2702,152.2505,152.2307,152.2109,152.1912,152.1715,152.1517,152.132,152.1122,152.0925,152.0728,152.0531,152.0334,152.0137,151.994,151.9743,151.9546,151.9349,151.9152,151.8955,151.8759,151.8562,151.8365,151.8169,151.7972,151.7776,151.7579,151.7383,151.7187,151.6991,151.6794,151.6598,151.6402,151.6206,151.601,151.5814,151.5618,151.5422,151.5226,151.5031,151.4835,151.4639,151.4444,151.4248,151.4053,151.3857,151.3662,151.3467,151.3271,151.3076,151.2881,151.2686,151.2491,151.2296,151.2101,151.1906,151.1711,151.1516,151.1321,151.1126,151.0932,151.0737,151.0542,151.0348,151.0153,150.9959,150.9765,150.957,150.9376,150.9182,150.8988,150.8793
110.3541,110.36,110.3969,110.4883,109.8751,109.7261,109.6713,109.6525,109.6502,109.6773,109.7344,115.4514,115.5145,115.5246,115.5347,115.5448,115.5549,115.565,115.5751,115.5852,115.5953,115.6055,115.6037,112.3048,112.2839,112.2712,112.2646,112.2625,112.2695,112.2809,112.3124,112.3569,115.7712,115.8379,115.8217,111.4636,111.6188,111.6668,111.6833,111.6733,111.6437,111.6689,114.2135,114.1385,114.1074,114.0972,114.1109,114.1556,114.2659,116.3812,116.4632,116.5291,116.5627,116.5963,116.63,116.661,116.6899,116.7188,116.7477,116.7738,116.7891,116.7922,116.7953,116.7983,116.8014,116.8045,116.8076,116.8107,116.7962,116.7736,116.0499,115.9864,115.9549,115.951,115.9709,116.0101,116.0953,116.5934,116.5523,116.5056,116.4821,116.4685,116.4732,116.4857,116.4982,108.501,108.4202,108.3779,108.3613,108.3631,108.388,108.4447,108.8741,108.8795,108.9057,108.9548,113.3254,113.335,113.3669,113.4224,117.1905,117.2619,117.293,117.3169,117.3224,117.3191,117.3159,117.3126,117.3094,117.3061,117.3028,117.3042,117.323,117.3419,117.3607,117.3654,117.2743,117.171,117.0679,116.9649,116.8621,116.7595,116.6571,116.5549,116.4528,116.3366,116.1442,115.9331,115.7226,115.5128,115.1222,114.4005,113.9724,113.5662,113.1598,107.6972,107.6284,107.5984,107.5901,107.6143,107.6764,112.639,112.701,112.7144,112.7279,112.7413,112.7548,112.7683,112.7828,112.702,109.6096,109.5507,109.5354,109.5374,109.562,109.6278,112.8812,112.9665,112.9869,113.0056,112.9762,112.9342,112.8922,112.8503,112.8084,112.7665,112.7246,112.6828,112.6402,112.5754,112.5094,112.3745,106.9367,106.7049,106.6301,106.6494,106.7151,106.8347,106.9851,107.1788,107.4012,107.6721,107.9788,108.4473,109.093,109.7513,110.4175,111.0919,111.7746,112.4657,113.1654,113.8739,114.5913,115.3179,116.0536,116.7989,117.5537,118.3185,153.6071,153.587,153.5669,153.5468,153.5267,153.5066,153.4865,153.4664,153.4464,153.4263,153.4062,153.3861,153.3661,153.346,153.326,153.3059,153.2859,153.2659,153.2458,153.2258,153.2058,153.1858,153.1658,153.1458,153.1258,153.1058,153.0858,153.0658,153.0458,153.0259,153.0059,152.986,152.966,152.9461,152.9261,152.9062,152.8862,152.8663,152.8464,152.8265,152.8065,152.7867,152.7667,152.7468,152.727,152.7071,152.6872,152.6673,152.6474,152.6276,152.6077,152.5879,152.568,152.5482,152.5283,152.5085,152.4886,152.4688,152.449,152.4292,152.4094,152.3896,152.3698,152.35,152.3302,152.3104,152.2906,152.2709,152.2511,152.2314,152.2116,152.1918,152.1721,152.1523,152.1326,152.1129,152.0931,152.0734,152.0537,152.034,152.0143,151.9946,151.9749,151.9552,151.9355,151.9158,151.8961,151.8765,151.8568,151.8371,151.8175,151.7978,151.7782,151.7586,151.7389,151.7193,151.6997,151.68,151.6604,151.6408,151.6212,151.6016,151.582,151.5624,151.5428,151.5233,151.5037,151.4841,151.4646,151.445,151.4254,151.4059,151.3863,151.3668,151.3473,151.3277,151.3082,151.2887,151.2692,151.2497,151.2302,151.2107,151.1912,151.1717,151.1522,151.1327,151.1133,151.0938,151.0743,151.0549,151.0354,151.016,150.9965,150.9771,150.9576,150.9382,150.9188,150.8994
106.4548,110.3612,110.38,110.4408,109.8457,109.7328,109.6871,109.67,109.6688,109.6944,109.7528,109.9659,115.396,115.4061,115.4161,115.4262,115.4363,115.4464,115.4565,115.4666,115.4767,115.4868,115.4968,115.5021,112.3123,112.2812,112.267,112.26,112.2573,112.2648,112.277,112.3074,112.3544,115.7019,115.6896,111.5123,111.6707,111.709,111.7196,111.7011,111.6775,111.9629,114.2548,114.1762,114.1412,114.1263,114.138,114.1786,114.2665,116.1452,116.1842,116.266,116.3478,116.3871,116.4206,116.4507,116.4795,116.5083,116.5371,116.5659,116.5948,116.6185,116.6216,116.6247,116.6278,116.6308,116.6339,116.637,116.6168,116.5943,116.0966,116.0085,115.9714,115.9652,115.9795,116.0146,116.0929,116.3564,116.3119,116.2717,116.2522,116.2328,116.2133,116.1977,116.2012,108.5383,108.4469,108.402,108.384,108.3832,108.4067,108.4593,108.8939,108.9046,108.934,108.9946,113.3386,113.3467,113.3782,113.4305,117.0462,117.1174,117.1485,117.1718,117.1686,117.1653,117.1621,117.1588,117.1555,117.1543,117.1711,117.1899,117.2087,117.2275,117.2463,117.2311,117.1299,117.0269,116.924,116.8213,116.7187,116.6164,116.5142,116.4115,116.2746,116.0859,115.8756,115.6653,115.4558,115.0746,114.2978,113.8848,113.3671,113.0459,112.8245,107.7352,107.6656,107.6354,107.6261,107.6503,107.7108,112.4372,112.499,112.5124,112.5258,112.5392,112.5526,112.566,112.5806,112.5001,109.6243,109.5654,109.5498,109.5518,109.576,109.6416,112.7057,112.7841,112.8159,112.8377,112.8084,112.7665,112.7246,112.6828,112.6411,112.5993,112.5576,112.5046,112.4399,112.3754,112.3096,106.9028,106.5295,106.3961,106.3537,106.4065,106.4934,106.6317,106.7992,107.0093,107.2475,107.5347,107.8975,108.4662,109.1169,109.7754,110.442,111.1167,111.7997,112.4911,113.1912,113.9,114.6177,115.3446,116.0807,116.8263,117.5815,118.3466,153.6279,153.6078,153.5877,153.5675,153.5474,153.5273,153.5072,153.4872,153.4671,153.447,153.4269,153.4068,153.3868,153.3667,153.3467,153.3266,153.3066,153.2865,153.2665,153.2465,153.2265,153.2064,153.1864,153.1664,153.1464,153.1264,153.1064,153.0864,153.0665,153.0465,153.0265,153.0066,152.9866,152.9666,152.9467,152.9267,152.9068,152.8869,152.8669,152.847,152.8271,152.8072,152.7873,152.7674,152.7475,152.7276,152.7077,152.6878,152.6679,152.6481,152.6282,152.6083,152.5885,152.5686,152.5488,152.5289,152.5091,152.4893,152.4695,152.4496,152.4298,152.41,152.3902,152.3704,152.3506,152.3308,152.311,152.2913,152.2715,152.2517,152.2319,152.2122,152.1924,152.1727,152.153,152.1332,152.1135,152.0938,152.074,152.0543,152.0346,152.0149,151.9952,151.9755,151.9558,151.9361,151.9164,151.8968,151.8771,151.8574,151.8378,151.8181,151.7985,151.7788,151.7592,151.7395,151.7199,151.7003,151.6807,151.6611,151.6414,151.6218,151.6022,151.5826,151.563,151.5435,151.5239,151.5043,151.4847,151.4652,151.4456,151.4261,151.4065,151.387,151.3674,151.3479,151.3284,151.3088,151.2893,151.2698,151.2503,151.2308,151.2113,151.1918,151.1723,151.1528,151.1333,151.1139,151.0944,151.0749,151.0555,151.036,151.0166,150.9971,150.9777,150.9583,150.9388,150.9194
